1033,991,944,898,869,832,821,789,747,738,735,740,773,809,824,820,785,754,751,757,746,712,689,676,662,666,657,665,659,653,652,666,683,661,661,646,595,528,502,473,508,570,595,629,658,697,730,732,739,762,800,819,826,842,875,873,865,849,844,843,861,872,846,822,800,768,732,704,660,621,592,573,553,526,487,485,503,503,506,520,560,574,597,623,651,691,726,741,789,851,889,912,930,930,894,879,870,863,886,899,924,951,958,967,995,1003,993,1021,1069,1109,1139,1139,1122,1051,1021,1061,1133,1186,1215,1248,1263,1272,1279,1311,1359,1391,1407,1429,1464,1451,1397,1321,1274,1226,1192,1207,1194,1164,1140,1129,1095,1049,991,914,891,832,827,791,773,782,806,845,832,824,844,837,773,749,712,721,738,753,794,839,835,782,777,754,730,723,707,660,648,642,604,546,498,492,491,508,518,516,519,450,375,304,334,401,567,608,628,639,649,629,584,577,656
1013,978,936,905,856,834,845,799,798,793,784,804,825,858,878,848,817,795,785,802,792,769,757,731,715,709,723,733,722,717,719,742,736,716,686,659,644,589,556,510,496,569,639,678,717,752,781,790,773,781,832,870,874,881,910,934,921,907,904,902,895,857,812,785,759,736,690,686,659,625,569,535,507,487,489,526,545,540,509,526,567,590,626,644,691,719,769,794,821,863,906,958,985,955,934,936,934,909,945,958,943,982,1011,1006,1022,1051,1049,1049,1099,1141,1169,1143,1096,1087,1091,1087,1132,1211,1252,1288,1328,1335,1351,1351,1380,1435,1448,1472,1451,1405,1368,1285,1245,1216,1182,1171,1167,1134,1078,1056,1047,1021,983,922,892,875,875,791,774,753,762,788,775,786,817,776,746,716,677,670,683,700,751,791,763,730,727,716,712,725,718,705,705,667,576,575,542,545,555,568,565,549,513,455,350,303,361,457,558,596,634,667,695,673,661,649,682
985,938,893,875,862,885,872,866,860,857,854,868,890,913,909,902,867,848,849,864,863,835,810,798,783,769,796,800,786,778,762,730,699,659,645,631,622,603,582,539,488,552,658,715,762,803,830,813,796,816,853,895,913,932,961,986,981,967,926,903,880,848,789,758,732,684,666,657,638,596,558,518,528,542,546,573,587,560,535,540,575,615,637,677,711,754,794,845,887,920,943,967,1020,1008,986,977,982,965,981,999,997,1002,1026,1037,1054,1081,1095,1093,1117,1172,1177,1165,1156,1148,1165,1137,1153,1218,1291,1337,1374,1397,1402,1403,1410,1421,1440,1435,1429,1378,1340,1272,1235,1203,1162,1134,1134,1081,1027,998,993,988,972,941,936,939,893,836,809,761,726,735,721,750,767,753,722,675,624,631,627,670,714,755,738,694,691,690,692,716,724,744,753,654,624,603,596,589,597,568,536,519,487,435,350,318,393,482,556,591,612,653,695,714,716,741,744
962,911,929,921,917,927,937,937,928,920,924,936,960,971,969,941,923,919,921,924,907,875,873,845,838,836,855,857,830,822,773,727,670,629,609,602,577,564,569,529,507,578,656,713,791,828,861,848,846,855,881,916,955,975,1001,1013,991,958,920,871,854,825,787,751,687,654,642,617,585,548,525,523,562,592,596,616,617,585,559,553,585,625,677,708,745,784,811,857,912,959,998,1018,1021,1045,1035,1028,1024,1011,1011,1045,1035,1044,1073,1081,1097,1137,1146,1136,1166,1196,1207,1221,1212,1219,1235,1247,1220,1240,1295,1361,1409,1417,1387,1375,1372,1360,1363,1399,1378,1364,1298,1251,1211,1188,1153,1122,1108,1061,1007,973,959,954,933,934,966,942,915,879,818,751,720,662,703,737,724,704,683,619,590,587,610,639,675,719,710,649,658,668,677,656,684,736,709,689,656,646,616,578,538,517,498,488,440,405,302,332,384,510,545,574,593,634,661,718,765,781,775
947,933,971,974,971,982,989,1012,1005,987,987,1009,1018,1025,1027,977,972,964,962,963,957,945,917,894,880,862,856,837,828,811,775,713,668,611,584,560,528,503,518,497,486,555,647,719,784,852,894,886,886,903,916,955,1001,1027,1030,996,961,925,889,854,823,785,757,727,687,652,608,591,557,548,547,574,605,635,658,657,645,638,579,555,585,646,690,745,780,825,844,888,923,956,999,1053,1054,1068,1078,1064,1070,1069,1069,1077,1094,1077,1089,1129,1150,1176,1201,1195,1199,1235,1262,1280,1276,1279,1308,1299,1277,1293,1319,1382,1406,1374,1335,1315,1298,1290,1329,1346,1325,1317,1267,1228,1196,1155,1137,1115,1088,1074,1043,1020,983,931,902,901,903,883,867,845,795,762,708,652,693,727,685,675,650,606,569,568,586,598,635,676,670,638,624,640,640,655,685,718,704,655,622,597,571,512,495,478,463,424,397,362,315,306,360,556,569,577,585,607,640,708,777,823,791
990,975,1014,1039,1033,1035,1049,1069,1076,1059,1052,1054,1086,1086,1082,1048,1023,1014,987,946,932,908,901,866,842,835,803,797,788,767,738,704,651,616,554,518,488,485,491,489,514,577,647,721,787,829,905,922,932,951,968,1004,1043,1059,1019,968,910,872,831,824,766,739,730,707,682,627,585,556,566,565,588,617,641,670,694,685,662,646,621,550,588,649,707,757,808,846,888,924,951,1002,1036,1061,1088,1096,1110,1113,1108,1132,1128,1119,1148,1146,1133,1151,1192,1213,1243,1239,1235,1265,1299,1332,1327,1345,1358,1364,1368,1354,1369,1399,1368,1310,1266,1264,1245,1240,1271,1284,1277,1254,1241,1214,1185,1150,1161,1155,1149,1071,1052,1026,991,959,891,851,817,806,790,782,776,763,719,652,672,685,668,667,638,599,546,540,577,617,656,692,670,575,576,614,599,649,676,656,642,623,593,561,510,494,472,433,394,360,319,306,294,319,370,582,623,627,618,632,668,731,804,848,788
1040,1031,1068,1092,1106,1107,1114,1139,1126,1123,1116,1130,1124,1100,1098,1048,1004,970,944,897,880,865,862,838,809,791,762,751,725,706,691,667,628,595,532,492,516,535,539,555,559,610,666,707,775,845,897,946,972,999,1019,1044,1077,1048,992,938,877,837,795,769,731,710,689,668,634,621,569,575,586,616,631,658,679,702,704,698,688,667,640,574,588,652,705,756,798,848,905,965,998,1023,1046,1080,1111,1138,1153,1160,1179,1195,1169,1157,1174,1187,1182,1190,1230,1254,1270,1288,1285,1303,1335,1349,1351,1360,1361,1353,1362,1360,1368,1377,1320,1268,1235,1212,1195,1193,1229,1244,1228,1211,1203,1195,1222,1190,1211,1201,1160,1091,1045,1020,972,928,832,825,782,732,725,702,722,735,708,655,625,636,659,666,628,584,529,526,568,631,673,638,630,564,562,565,606,655,633,593,593,585,554,519,493,471,438,405,351,308,299,306,321,342,395,536,641,645,642,657,691,763,829,825,790
1101,1105,1113,1158,1182,1177,1175,1172,1114,1085,1099,1102,1093,1067,1062,1035,992,941,893,859,843,827,820,808,793,771,736,713,684,671,652,634,596,563,509,512,563,594,603,607,615,631,668,723,779,839,897,934,963,1004,1048,1071,1082,1024,969,908,835,790,748,726,706,694,678,646,614,583,600,618,640,661,661,692,710,721,732,720,713,665,616,588,586,641,681,735,776,832,885,949,984,1006,1025,1073,1107,1132,1185,1216,1226,1242,1224,1214,1218,1224,1232,1237,1265,1296,1320,1343,1348,1355,1361,1332,1311,1301,1283,1287,1290,1311,1331,1321,1282,1234,1195,1173,1155,1175,1195,1198,1198,1190,1168,1174,1181,1215,1229,1213,1152,1100,1033,984,956,908,870,810,748,704,668,651,694,689,670,595,572,606,645,666,602,549,506,532,579,627,605,589,573,550,518,533,618,629,594,567,553,537,525,497,481,460,425,362,309,292,331,352,363,371,427,557,625,672,683,693,735,800,847,832,800
1169,1157,1159,1185,1169,1161,1151,1109,1059,1030,1039,1042,1046,1019,1019,999,981,915,852,815,804,777,781,767,746,740,724,691,668,646,616,595,569,534,494,529,589,632,656,655,668,678,711,731,777,835,884,911,925,974,1030,1058,1046,993,952,902,842,788,764,737,729,684,645,610,606,609,633,638,660,683,695,729,749,761,761,753,706,658,632,609,609,645,698,751,802,838,887,915,931,958,1002,1053,1083,1148,1201,1251,1286,1289,1280,1258,1272,1283,1292,1306,1326,1352,1368,1380,1392,1379,1329,1281,1257,1238,1220,1234,1262,1287,1318,1322,1255,1207,1164,1146,1122,1146,1150,1148,1169,1186,1146,1129,1152,1182,1208,1218,1166,1125,1017,997,968,905,887,845,780,707,641,610,610,635,624,570,565,619,653,640,570,517,492,514,566,609,588,554,522,512,502,563,603,572,551,537,511,504,495,470,468,441,387,296,308,339,388,422,416,429,446,587,631,672,704,752,785,829,849,834,837
1226,1221,1219,1188,1132,1100,1078,1052,1020,990,990,975,983,976,960,944,931,891,840,788,757,733,743,725,711,696,704,660,648,616,585,555,529,508,507,552,615,672,706,705,721,725,739,770,791,824,875,901,928,964,1020,1037,1020,983,936,889,836,786,748,716,699,672,638,629,636,656,651,679,708,720,730,753,783,801,784,739,712,689,663,665,656,647,679,713,767,809,841,858,887,938,989,1033,1084,1149,1206,1265,1303,1327,1322,1308,1303,1302,1295,1285,1320,1378,1397,1401,1367,1328,1295,1268,1235,1211,1199,1212,1235,1283,1323,1315,1245,1202,1139,1118,1096,1121,1098,1115,1145,1169,1151,1121,1123,1155,1183,1219,1161,1110,1037,1011,1007,962,915,870,810,742,660,601,590,596,576,533,578,632,628,607,533,497,467,505,557,584,584,548,510,487,504,549,544,534,522,497,491,499,474,452,434,386,313,307,331,393,449,470,484,517,558,593,633,661,689,776,806,824,823,841,873
1286,1280,1234,1171,1111,1056,1024,993,952,927,921,915,908,917,891,860,881,852,808,756,732,701,691,688,666,659,656,631,616,582,559,518,497,491,531,577,633,683,737,748,757,761,769,774,783,810,845,866,873,920,959,1001,1000,943,887,843,817,801,739,709,683,653,655,679,690,681,693,707,725,767,778,791,816,825,806,773,745,705,705,731,738,730,726,743,754,763,783,816,863,903,976,1032,1085,1149,1186,1233,1274,1318,1299,1267,1265,1244,1218,1219,1261,1315,1359,1373,1325,1307,1268,1231,1201,1171,1168,1203,1242,1294,1329,1309,1228,1189,1149,1099,1088,1077,1068,1098,1121,1140,1111,1102,1116,1147,1178,1198,1118,1093,1079,1044,1025,977,927,875,815,760,700,635,605,571,539,544,599,619,587,545,502,472,463,511,541,543,550,555,493,464,499,527,518,511,493,477,468,467,428,397,362,301,312,332,372,419,475,511,552,596,605,600,612,641,678,745,783,797,808,838,881
1329,1274,1193,1125,1087,1048,1010,980,927,898,888,861,857,865,842,806,811,805,757,732,716,677,648,644,634,622,620,607,578,560,516,500,499,500,553,597,649,687,714,740,750,745,744,755,741,758,789,808,830,866,900,966,978,922,881,833,815,787,774,722,716,716,715,720,723,704,730,742,756,791,821,831,864,871,837,829,782,725,744,779,801,803,776,784,812,779,786,827,867,921,967,1026,1080,1116,1153,1204,1252,1267,1251,1215,1204,1183,1171,1198,1247,1299,1331,1324,1299,1262,1236,1192,1170,1154,1177,1216,1259,1310,1344,1346,1250,1209,1166,1099,1082,1044,1039,1031,1050,1057,1062,1065,1087,1142,1169,1134,1085,1053,1042,1048,1020,959,927,865,805,766,726,664,657,587,512,537,572,584,555,503,464,446,469,493,505,525,569,552,494,447,472,489,477,461,436,416,408,391,377,343,316,317,343,372,400,446,492,545,622,645,637,635,627,629,657,722,749,780,808,859,901
1311,1231,1178,1124,1085,1029,1008,967,936,895,876,844,811,794,765,750,766,789,747,731,719,698,643,619,614,592,573,562,542,530,509,539,526,509,563,609,619,629,656,686,689,703,693,705,696,726,751,761,790,816,866,904,954,915,894,839,822,784,757,735,751,767,761,773,766,739,766,791,786,830,865,886,908,917,883,862,794,758,777,825,851,852,843,836,813,797,808,849,878,932,974,1016,1056,1095,1128,1162,1180,1210,1203,1157,1137,1120,1137,1168,1206,1241,1252,1266,1251,1225,1192,1163,1138,1139,1182,1221,1278,1327,1358,1345,1318,1232,1177,1127,1063,1042,1000,955,947,950,970,1000,1040,1075,1099,1073,1060,987,973,988,974,922,900,855,826,763,729,704,638,587,517,494,527,549,508,446,432,458,476,464,483,534,557,533,484,445,441,456,436,398,359,367,333,330,321,317,324,324,361,409,439,498,563,614,659,685,677,669,656,667,689,724,746,779,825,877,927
1239,1199,1170,1124,1078,1023,977,943,895,868,848,818,779,756,725,695,736,743,721,718,738,707,653,601,601,570,536,520,519,498,533,562,513,518,556,545,569,589,600,632,639,650,656,651,666,678,699,714,737,768,796,836,877,909,894,883,862,825,767,766,774,813,792,815,810,761,797,843,846,863,915,941,961,932,888,837,806,779,812,859,894,897,883,846,817,846,838,841,871,912,942,972,1008,1045,1092,1110,1158,1180,1147,1112,1068,1067,1080,1120,1158,1191,1216,1196,1186,1162,1140,1087,1104,1138,1184,1233,1283,1338,1359,1329,1283,1241,1179,1153,1093,1050,942,890,885,885,873,940,1000,1030,1018,1017,995,952,908,904,891,861,833,797,782,753,712,677,631,572,500,478,521,526,451,427,455,456,446,451,481,517,515,521,491,446,423,431,385,335,333,327,335,335,351,370,357,328,368,408,460,538,629,670,682,705,703,697,712,729,746,762,767,807,843,904,947
1165,1153,1142,1116,1053,1018,971,925,889,839,792,774,740,736,690,660,690,691,675,671,672,689,642,605,579,559,538,550,553,555,571,565,516,510,501,514,532,538,570,598,590,610,595,621,620,625,645,670,690,716,757,791,823,847,866,889,848,833,798,785,814,853,850,863,849,808,833,875,895,909,953,975,940,894,875,829,807,812,838,863,909,934,911,877,875,895,909,917,920,922,957,999,1030,1071,1099,1139,1164,1141,1091,1058,1009,1003,1039,1073,1116,1134,1133,1144,1116,1079,1077,1044,1085,1145,1193,1248,1290,1331,1326,1284,1260,1226,1168,1104,1039,993,905,851,845,843,844,910,956,950,962,957,912,885,839,815,833,789,766,753,756,742,702,680,623,579,415,454,505,459,427,414,418,399,418,416,440,451,481,495,488,437,395,388,326,342,347,362,367,398,419,422,406,344,351,408,465,556,680,704,716,741,742,741,768,806,788,798,819,846,876,935,982
1129,1093,1085,1073,1044,1015,976,903,858,827,787,728,714,695,646,637,646,638,638,615,627,653,664,636,623,540,543,570,607,613,613,593,553,528,529,528,520,554,569,577,589,612,613,620,631,633,627,644,660,703,731,760,792,831,861,909,910,866,853,852,869,905,912,927,890,848,867,911,941,948,980,978,968,944,921,882,862,869,903,935,949,980,959,938,930,941,961,969,969,996,1025,1046,1088,1115,1165,1165,1136,1088,1043,1007,983,978,1018,1065,1055,1052,1058,1057,1026,1014,1003,1030,1075,1120,1177,1251,1306,1331,1301,1247,1216,1201,1122,1077,1023,967,909,858,796,799,823,869,898,900,892,882,861,812,773,785,772,738,720,691,699,699,682,648,604,543,479,435,472,437,414,390,387,381,379,363,369,375,427,457,451,416,382,344,337,359,395,425,451,465,482,465,404,364,353,408,474,557,650,675,692,744,778,800,822,838,836,839,866,903,939,966,1008
1099,1060,1045,1039,1002,991,927,892,838,792,760,703,695,658,611,607,615,605,589,574,577,621,638,640,617,560,544,593,645,671,676,635,593,560,545,537,531,572,600,616,623,648,654,669,694,696,682,691,700,710,761,794,834,881,908,953,961,914,911,928,943,969,989,999,955,894,892,937,985,1011,1023,1025,992,995,973,948,932,935,933,966,1008,1006,1008,991,999,1001,996,1015,1017,1016,1077,1092,1135,1166,1168,1125,1099,1070,1009,963,950,966,1002,995,973,966,970,977,943,913,952,985,1020,1071,1143,1208,1259,1304,1256,1222,1189,1153,1080,1023,994,928,888,811,763,752,781,826,820,833,822,825,785,760,718,733,721,685,645,626,623,619,590,583,570,503,437,425,422,404,383,388,378,376,365,384,378,367,375,391,402,402,373,334,362,420,466,502,531,528,483,443,403,345,377,423,470,545,613,653,684,719,756,773,779,808,819,829,881,926,949,982,1002
1071,1042,1012,996,965,951,919,879,818,767,729,697,666,643,604,576,580,578,560,569,565,572,593,585,570,539,559,620,672,719,686,636,591,603,594,544,528,559,624,654,665,687,710,730,757,756,753,723,743,759,795,836,862,910,947,981,947,931,972,995,1014,1037,1046,1039,999,916,906,963,1021,1050,1078,1078,1051,1051,1049,1025,1000,1006,1009,1027,1052,1058,1039,1020,1025,1042,1051,1046,1023,1050,1102,1145,1177,1155,1100,1069,1054,1029,982,924,897,933,925,917,891,845,850,867,889,921,956,956,981,1022,1094,1153,1222,1262,1241,1206,1165,1120,1059,1001,948,924,856,787,736,725,753,762,753,739,740,734,717,689,668,664,662,618,583,559,564,538,519,500,496,455,408,399,397,387,380,380,374,394,423,423,410,389,369,355,367,368,355,344,391,473,530,562,549,489,449,419,369,377,418,459,483,551,627,663,682,685,704,723,714,762,774,781,819,882,903,933,940
1025,1010,996,962,923,922,897,844,800,758,736,685,650,635,606,592,617,612,606,621,600,581,579,565,547,553,583,639,695,736,716,661,637,637,604,541,526,564,617,669,717,733,772,772,784,810,790,748,759,788,815,861,887,931,984,1011,962,960,996,1038,1069,1100,1107,1073,1000,947,943,984,1024,1073,1120,1120,1101,1115,1107,1080,1056,1070,1071,1093,1097,1105,1071,1062,1079,1096,1102,1073,1078,1096,1143,1191,1176,1122,1061,1025,1009,973,936,887,845,825,851,829,805,757,773,822,822,845,910,946,975,1011,1051,1113,1200,1248,1253,1202,1152,1101,1050,975,915,882,855,776,730,712,691,675,665,656,657,649,657,632,613,614,614,575,563,531,522,490,467,470,441,407,393,383,385,377,373,396,434,444,459,458,439,415,385,354,348,348,345,361,445,539,589,581,505,461,398,375,382,398,451,488,518,592,625,642,630,635,659,667,669,705,735,734,772,828,851,875,855
994,992,978,936,900,881,880,831,789,775,740,701,664,628,585,613,667,673,673,666,619,631,625,597,567,587,635,665,704,746,728,691,672,645,607,588,553,593,661,718,764,793,819,824,819,838,832,770,781,825,853,886,940,970,1018,1046,1012,995,1041,1087,1127,1157,1160,1107,1022,977,999,1042,1069,1101,1160,1172,1177,1171,1157,1119,1123,1134,1146,1150,1158,1133,1135,1060,1057,1125,1147,1124,1106,1133,1188,1220,1217,1120,1075,1032,964,969,909,862,810,779,784,773,733,723,759,786,820,877,945,970,988,1024,1058,1131,1198,1247,1255,1234,1168,1116,1062,990,912,865,825,775,726,699,647,622,603,598,594,586,581,569,561,565,578,567,531,497,493,451,423,414,402,381,382,377,386,404,440,456,470,482,476,469,449,434,411,396,374,368,375,442,513,611,606,533,493,423,390,422,444,415,446,506,536,545,570,590,571,590,612,600,628,651,682,697,752,784,790,800,790
980,959,924,901,872,857,840,818,777,747,726,680,638,598,598,653,709,735,727,683,653,656,666,632,601,633,662,698,729,769,755,728,702,653,636,609,568,590,664,735,800,833,863,865,857,871,850,776,805,870,899,927,941,986,1041,1084,1046,1039,1089,1128,1179,1205,1210,1140,1070,1031,1038,1089,1126,1148,1171,1220,1254,1250,1202,1190,1195,1206,1209,1210,1192,1165,1108,1050,1052,1123,1166,1175,1162,1182,1224,1226,1192,1143,1133,1065,1030,972,918,853,769,754,729,712,699,749,813,838,881,932,985,1008,1033,1055,1093,1159,1215,1278,1280,1282,1241,1195,1150,1017,940,905,847,797,760,748,662,595,558,574,550,539,522,512,512,530,535,517,486,474,451,414,399,399,390,387,392,417,445,465,485,511,530,532,543,530,507,469,473,444,428,427,436,493,579,620,574,506,430,393,409,461,476,441,433,448,459,482,504,517,515,526,541,561,567,591,643,682,699,712,718,718,735
958,942,890,860,827,802,781,763,738,713,701,661,622,601,635,693,741,770,759,720,704,693,693,665,656,677,702,731,759,771,737,713,691,662,640,622,610,592,647,721,768,818,878,904,913,902,864,819,815,886,942,980,993,1015,1073,1122,1089,1062,1105,1155,1206,1238,1250,1175,1130,1100,1095,1115,1170,1209,1208,1255,1300,1312,1281,1257,1253,1269,1266,1247,1225,1150,1090,1032,1033,1101,1129,1174,1190,1226,1224,1188,1158,1139,1092,1052,1001,945,894,836,787,735,706,694,727,781,827,885,929,961,1026,1032,1060,1106,1133,1185,1225,1262,1284,1249,1206,1170,1121,1050,985,925,847,825,798,795,717,650,627,598,601,576,558,529,511,508,487,467,465,455,425,400,388,398,396,428,448,483,489,486,520,593,622,633,628,617,571,553,519,497,491,484,506,545,594,589,525,485,431,410,450,490,502,466,444,454,459,475,470,476,488,519,526,535,554,563,608,647,663,701,733,739,766
915,897,860,810,777,741,726,705,694,679,657,626,603,610,683,737,762,801,803,791,744,740,754,713,703,701,738,766,770,748,711,679,652,617,597,600,593,586,649,688,746,807,872,916,946,928,883,848,841,899,959,1019,1045,1059,1093,1134,1150,1099,1136,1183,1238,1266,1253,1211,1190,1186,1176,1173,1187,1229,1269,1320,1359,1371,1335,1323,1313,1319,1337,1287,1215,1143,1083,1017,1005,1046,1077,1125,1165,1205,1176,1143,1115,1074,1046,995,969,925,878,811,753,721,698,685,753,824,855,880,940,1017,1058,1074,1108,1120,1108,1150,1202,1225,1227,1170,1130,1111,1084,1058,1032,1000,915,899,861,842,772,732,710,663,644,616,599,584,561,507,483,422,420,411,418,448,469,462,489,505,529,524,519,521,551,633,677,688,693,688,644,605,596,569,553,567,579,611,591,553,512,448,412,428,476,527,556,521,489,490,484,498,509,517,509,530,569,585,594,588,594,629,687,750,789,814,835
866,854,818,776,738,691,672,656,651,638,624,608,599,636,671,725,764,808,837,835,811,799,793,755,721,725,748,774,766,732,686,652,616,584,576,584,556,596,647,676,743,801,876,925,961,961,919,882,866,904,967,1028,1082,1109,1129,1171,1161,1126,1167,1209,1254,1291,1311,1280,1275,1276,1266,1273,1259,1273,1324,1375,1427,1448,1411,1398,1378,1380,1339,1305,1220,1137,1070,1009,984,1016,1074,1120,1154,1154,1120,1104,1060,1024,963,948,929,895,855,791,745,707,670,707,767,826,865,903,941,1036,1086,1109,1099,1064,1025,1035,1080,1122,1152,1110,1063,1029,1011,996,992,981,955,923,897,847,816,769,746,751,705,646,609,580,553,508,479,409,414,444,474,496,520,536,550,563,594,576,545,567,620,670,718,741,758,753,712,678,652,630,635,634,651,641,604,527,461,416,432,477,537,582,619,599,562,531,519,538,559,554,556,541,554,614,642,636,643,665,694,738,813,871,904
817,812,778,753,708,657,648,637,628,623,613,628,645,679,700,733,787,828,859,880,875,857,809,772,748,755,771,791,764,704,679,613,584,578,606,592,588,645,693,728,773,829,897,947,998,998,965,921,907,917,967,1022,1073,1120,1160,1189,1182,1147,1197,1240,1290,1347,1368,1356,1340,1373,1362,1360,1335,1353,1383,1428,1482,1476,1438,1436,1429,1387,1353,1287,1220,1132,1050,992,974,1017,1058,1092,1078,1094,1071,1030,1006,957,923,895,874,847,831,771,729,671,656,709,766,810,865,912,978,1039,1067,1056,1017,991,948,920,957,1007,1025,987,955,945,926,917,924,904,900,908,908,877,836,801,785,741,656,635,582,560,518,483,457,428,437,464,474,504,548,589,612,632,632,608,586,625,662,734,771,796,808,797,764,743,730,719,703,712,715,640,575,493,429,426,484,535,594,646,659,647,633,608,592,598,608,610,622,610,585,622,671,696,716,746,754,746,792,868,936
768,764,732,698,673,646,663,638,634,625,638,671,698,724,747,755,792,833,887,918,918,904,855,806,786,791,819,840,792,713,651,608,601,624,629,599,592,660,735,767,813,863,921,956,1001,1031,1014,976,959,974,1001,1022,1082,1128,1176,1200,1192,1188,1234,1275,1313,1350,1392,1403,1377,1392,1394,1367,1344,1350,1373,1401,1418,1418,1420,1390,1373,1348,1304,1282,1200,1130,1035,957,943,970,994,1022,1011,1022,1001,989,949,923,892,846,829,801,764,745,710,667,668,702,740,784,836,912,965,996,993,971,956,934,866,841,850,850,870,875,878,861,849,832,835,817,850,872,871,834,797,767,752,711,635,605,567,531,513,488,452,416,448,495,506,525,573,619,668,679,663,652,666,706,741,796,835,850,861,845,820,800,787,775,767,731,691,633,550,465,441,477,541,612,662,694,695,692,682,665,646,651,674,692,686,676,647,638,683,743,776,811,828,809,796,861,921
720,702,678,667,653,651,672,662,651,682,705,726,736,761,782,790,824,855,902,959,955,929,852,833,846,861,881,863,801,738,713,625,627,676,654,587,595,669,722,787,846,892,944,985,994,1032,1076,1016,1010,1008,1049,1064,1097,1145,1203,1241,1231,1226,1268,1315,1360,1385,1407,1362,1325,1342,1349,1302,1294,1286,1302,1344,1359,1354,1342,1323,1295,1269,1240,1250,1210,1130,1020,950,914,922,966,946,938,931,935,935,932,901,869,809,782,766,730,690,677,664,633,675,735,778,826,877,910,908,914,915,890,862,817,775,769,786,794,807,805,789,779,759,751,795,837,837,826,816,770,745,722,697,632,585,548,517,499,466,429,432,470,518,540,567,631,686,724,743,722,731,752,781,811,845,880,905,911,885,864,859,856,814,775,710,637,583,532,459,472,516,554,631,690,712,741,751,740,733,710,718,749,752,734,729,702,676,668,719,792,845,886,877,871,858,875
687,666,675,673,662,680,695,702,685,734,773,784,785,787,805,825,853,895,938,975,950,898,884,893,915,936,907,855,792,737,684,636,636,680,669,600,607,650,690,737,795,851,900,924,956,1019,1077,1081,1061,1054,1064,1094,1130,1174,1217,1254,1257,1273,1305,1327,1366,1396,1370,1332,1277,1276,1272,1233,1209,1231,1279,1296,1288,1296,1265,1242,1210,1180,1171,1170,1205,1135,1010,945,903,884,884,886,888,874,865,895,909,859,823,807,750,716,686,635,637,636,629,672,706,729,742,800,831,840,850,835,795,792,772,725,714,708,752,761,736,730,728,718,742,794,832,809,795,790,769,746,707,638,592,556,513,497,461,438,437,468,504,557,565,618,676,716,770,793,814,818,835,847,870,906,933,962,953,950,944,934,900,795,700,642,597,522,466,452,487,564,606,655,720,750,787,802,796,799,781,782,795,802,792,782,750,743,715,712,761,825,896,954,944,933,908
699,701,686,694,698,712,727,746,749,777,821,839,837,827,840,868,904,946,980,1002,974,941,927,949,974,955,905,845,777,717,656,616,659,694,669,631,594,647,725,770,791,820,861,898,926,995,1047,1092,1102,1098,1111,1128,1147,1194,1237,1266,1278,1318,1350,1383,1408,1428,1389,1320,1282,1219,1212,1184,1165,1202,1219,1211,1203,1191,1190,1160,1134,1118,1090,1115,1177,1130,1037,967,908,901,862,834,833,803,841,852,864,822,768,759,747,703,658,659,682,666,630,624,645,659,704,727,743,750,736,736,731,719,728,698,660,678,707,708,690,675,682,693,742,800,808,788,756,750,748,708,652,576,543,523,472,460,435,445,492,529,544,580,581,622,688,748,783,852,896,903,901,925,953,982,1004,1019,1026,1018,1025,945,862,725,650,585,532,494,494,539,575,616,665,710,746,786,812,859,870,857,855,851,862,852,858,847,813,790,760,743,756,817,892,958,1008,1005,992
737,740,748,740,743,756,778,808,803,803,846,875,878,875,887,913,929,966,1022,1031,1018,1010,1011,1020,1023,976,905,823,764,713,651,647,701,718,685,630,622,626,697,767,815,855,898,947,989,1013,1052,1109,1148,1152,1152,1161,1185,1211,1223,1224,1257,1323,1339,1362,1412,1433,1381,1304,1258,1177,1168,1168,1141,1173,1152,1140,1119,1121,1098,1087,1071,1060,1027,1060,1136,1099,1002,985,952,961,916,866,829,793,788,790,786,765,725,726,708,657,655,693,735,716,694,652,613,608,633,678,678,657,674,673,665,670,687,671,641,635,661,661,648,629,645,690,753,788,781,749,706,716,708,656,611,540,508,457,446,435,453,496,546,576,598,618,618,623,681,727,769,833,887,950,985,1009,1035,1047,1069,1105,1112,1103,1071,945,850,725,637,550,500,510,583,619,654,684,706,747,783,813,869,914,930,935,922,925,925,930,932,919,892,820,790,776,778,832,892,961,1027,1063,1059
801,806,800,791,812,817,828,851,860,861,873,909,932,950,937,950,1002,1012,1054,1080,1072,1062,1078,1083,1042,985,900,825,742,676,645,668,732,727,668,643,652,611,645,717,770,805,876,946,1020,1078,1106,1150,1169,1175,1166,1166,1182,1170,1172,1179,1232,1271,1293,1333,1394,1424,1353,1300,1231,1156,1135,1127,1123,1122,1099,1079,1053,1028,1038,1022,1017,1001,992,1012,1079,1047,1026,992,996,977,945,901,842,841,745,740,746,729,705,680,652,680,715,749,795,789,752,706,650,632,612,617,620,610,621,629,619,630,647,651,638,593,613,616,595,592,651,704,751,747,746,719,677,705,680,615,563,495,478,446,452,477,520,541,581,614,638,670,655,651,666,715,756,829,873,965,1036,1089,1094,1111,1141,1127,1108,1075,1017,937,825,700,642,537,500,542,609,688,726,737,771,793,818,856,920,973,1001,1012,1007,1017,1014,1004,1003,990,917,847,832,804,800,820,880,967,1025,1094,1123
849,855,859,869,870,880,891,906,911,915,921,957,982,989,985,977,1027,1062,1082,1122,1122,1130,1129,1099,1024,967,895,822,737,663,664,702,758,736,687,670,685,627,625,650,705,772,850,923,1020,1074,1115,1150,1161,1135,1120,1124,1122,1104,1093,1139,1196,1215,1270,1338,1390,1420,1337,1304,1232,1153,1101,1091,1072,1056,1036,996,973,960,951,968,958,931,950,962,991,987,997,1003,991,972,946,907,873,801,751,696,697,701,668,692,714,746,771,801,839,850,840,822,750,690,650,596,572,572,577,588,579,562,585,612,609,580,572,567,575,611,670,712,722,713,708,672,640,670,613,564,511,451,453,478,500,529,553,589,618,645,677,692,672,692,713,704,772,838,896,980,1059,1121,1149,1161,1127,1088,1034,999,964,892,795,710,655,562,500,532,587,663,758,791,813,838,867,898,962,1025,1073,1100,1096,1108,1126,1100,1077,1000,917,850,844,856,867,889,895,934,1011,1086,1167
873,909,931,942,945,953,963,984,984,988,992,1001,1025,1016,1037,1032,1046,1080,1126,1153,1158,1127,1110,1076,1004,921,892,830,750,710,675,701,719,730,698,690,726,735,621,638,706,782,855,925,988,1041,1065,1103,1113,1106,1091,1067,1051,1028,1055,1098,1165,1229,1295,1360,1395,1394,1342,1276,1182,1127,1078,1041,1001,967,942,928,897,880,918,913,894,911,943,923,935,935,948,938,950,936,887,869,824,792,735,700,674,672,691,734,781,800,839,873,902,927,911,908,865,785,725,667,613,579,554,551,542,541,549,585,580,547,528,520,565,612,663,696,689,674,644,607,604,574,528,496,469,469,504,533,553,556,578,624,647,675,712,704,693,725,756,756,780,823,888,965,1037,1119,1188,1195,1120,1065,970,912,877,832,762,712,650,655,572,540,540,634,700,750,770,801,839,896,968,1052,1128,1163,1180,1195,1184,1150,1067,995,937,900,891,904,949,982,978,987,1038,1091,1175
879,941,983,990,999,1019,1051,1071,1076,1060,1048,1051,1062,1046,1060,1092,1101,1131,1162,1165,1119,1086,1062,1029,970,927,860,869,764,767,721,677,705,744,697,723,759,696,668,644,722,800,870,935,982,993,1008,1042,1076,1078,1050,1020,973,975,1039,1096,1173,1234,1299,1356,1389,1366,1310,1258,1192,1137,1065,1046,968,925,887,839,840,852,867,849,835,878,859,865,887,864,880,893,925,903,859,807,773,761,740,713,681,728,760,792,818,821,841,863,903,899,874,916,878,767,727,679,634,604,563,546,564,574,555,555,545,522,538,529,524,582,629,652,637,621,588,544,497,481,468,461,482,521,564,579,596,604,614,650,691,718,757,784,775,764,786,807,803,829,879,945,1005,1094,1206,1204,1172,1100,1055,970,927,887,800,765,740,682,600,545,513,561,630,681,723,762,835,888,990,1083,1159,1225,1254,1264,1245,1150,1050,995,970,950,940,968,1006,1041,1048,1076,1105,1143,1194
907,957,1022,1034,1053,1085,1129,1146,1130,1094,1077,1092,1102,1107,1114,1140,1160,1170,1166,1134,1095,1051,1031,995,937,904,877,838,801,752,714,670,710,734,713,759,773,734,711,679,724,803,870,932,960,969,986,1033,1055,1028,992,951,924,1001,1057,1116,1182,1229,1293,1337,1363,1333,1280,1235,1185,1133,1108,1067,1002,963,908,857,849,847,828,798,801,804,788,824,812,809,827,848,861,874,827,763,724,716,699,688,693,750,805,813,795,763,762,770,790,800,835,857,809,728,685,641,612,586,560,569,613,606,588,538,530,540,564,586,547,554,594,607,581,572,535,494,466,477,497,519,566,604,627,651,661,646,643,672,717,776,812,813,800,807,822,849,857,854,871,912,965,1057,1190,1246,1239,1207,1150,1082,1010,937,885,850,775,710,660,590,550,547,612,682,722,765,853,939,1051,1125,1201,1279,1323,1334,1257,1160,1090,1067,1075,1054,1031,1013,1051,1087,1128,1147,1166,1205,1238
937,997,1035,1085,1116,1148,1177,1175,1136,1108,1118,1141,1159,1164,1164,1174,1192,1169,1133,1103,1066,1030,994,950,890,859,827,812,776,721,673,698,739,747,734,773,803,782,742,695,722,785,850,903,927,950,1008,1036,1005,958,936,905,952,1020,1089,1146,1194,1257,1291,1344,1389,1336,1287,1238,1215,1151,1114,1046,998,930,877,879,899,883,844,823,802,777,769,777,766,767,772,768,819,827,785,743,703,690,701,733,754,776,767,748,708,672,695,700,717,737,790,781,762,704,631,583,564,558,563,607,658,636,600,561,550,562,606,595,567,540,571,548,540,528,499,470,496,520,567,599,612,640,668,710,725,686,686,698,747,815,835,842,858,875,882,905,937,933,943,958,997,1055,1169,1260,1316,1295,1197,1155,1075,1007,937,880,800,720,670,650,565,592,637,710,767,834,910,997,1064,1150,1250,1317,1359,1333,1262,1197,1185,1176,1166,1136,1113,1110,1133,1153,1187,1237,1249,1263,1300
951,1009,1061,1128,1160,1195,1218,1187,1158,1170,1177,1199,1204,1209,1207,1208,1192,1158,1106,1062,1034,988,953,911,892,845,789,758,732,695,714,745,768,756,756,800,827,815,790,722,675,755,810,866,903,956,986,986,960,937,872,904,961,1045,1105,1150,1195,1235,1306,1381,1365,1338,1299,1249,1211,1161,1094,1043,983,927,888,918,969,958,911,871,838,802,796,790,767,756,742,738,762,776,757,698,701,722,749,783,787,747,702,643,633,639,631,634,657,693,724,729,728,657,591,584,600,606,619,651,693,680,637,598,590,604,640,645,615,554,524,505,495,492,488,488,534,587,641,656,660,679,708,752,739,713,705,718,785,840,865,889,918,943,943,964,998,1027,1027,1022,1057,1103,1225,1302,1337,1317,1265,1187,1110,1055,972,917,835,762,715,657,575,560,627,695,788,856,959,1038,1129,1185,1265,1298,1300,1275,1257,1255,1259,1258,1256,1208,1204,1215,1209,1233,1294,1324,1333,1342,1356
968,1023,1083,1164,1197,1241,1267,1259,1218,1230,1242,1259,1270,1259,1239,1199,1165,1124,1078,1037,967,950,923,881,849,820,743,717,707,697,744,790,806,774,782,829,858,857,815,750,674,703,757,826,856,910,932,920,921,886,860,916,975,1026,1073,1126,1173,1231,1296,1377,1387,1357,1303,1301,1229,1205,1081,1043,992,938,887,936,1000,988,925,913,861,852,859,840,828,772,777,752,727,739,717,708,715,741,787,830,775,733,635,657,683,686,643,596,619,647,670,697,681,638,574,609,642,635,663,685,709,722,698,667,641,650,674,667,620,590,559,563,540,529,495,509,590,633,681,706,715,737,773,796,782,771,741,760,798,861,918,956,984,1016,1019,1030,1084,1101,1120,1129,1180,1216,1287,1343,1366,1305,1253,1227,1165,1111,1007,925,850,780,712,635,575,574,618,694,777,892,986,1088,1163,1220,1243,1225,1230,1202,1237,1282,1333,1335,1321,1295,1289,1296,1305,1343,1397,1426,1427,1418,1414
1035,1037,1118,1186,1223,1264,1305,1316,1291,1286,1301,1305,1293,1274,1239,1176,1145,1089,1048,997,953,918,892,849,802,767,740,743,779,780,771,823,840,806,823,863,885,904,850,782,730,717,746,782,828,863,880,861,861,824,857,888,954,995,1037,1085,1139,1205,1270,1330,1377,1368,1325,1281,1235,1175,1070,1020,958,909,914,957,1015,1043,985,922,904,905,920,886,850,803,811,807,763,726,709,724,731,745,797,836,790,735,671,692,746,722,677,634,601,611,637,662,649,610,617,664,680,677,696,723,741,764,777,747,741,705,689,643,613,578,584,594,586,533,512,587,651,683,711,748,763,793,812,844,840,820,787,818,842,893,954,1013,1061,1094,1112,1149,1176,1191,1207,1232,1266,1305,1348,1385,1339,1294,1206,1187,1159,1098,1020,935,857,787,710,625,577,588,629,709,798,899,997,1080,1141,1179,1191,1165,1132,1115,1182,1251,1333,1387,1394,1386,1371,1404,1430,1479,1508,1506,1490,1478,1480
1137,1108,1159,1206,1255,1291,1346,1374,1365,1353,1335,1318,1275,1245,1211,1171,1126,1081,1023,968,924,879,846,802,763,726,730,790,812,831,849,873,894,862,863,906,945,941,905,835,780,681,727,754,787,822,818,796,809,822,878,924,963,1019,1057,1071,1092,1164,1220,1288,1336,1361,1372,1310,1230,1170,1095,1025,946,914,953,997,1031,1052,1025,975,940,958,976,952,892,842,824,841,793,763,745,773,768,769,808,844,805,715,695,708,775,787,750,672,644,613,598,616,607,598,647,695,727,733,735,756,775,798,802,767,726,684,647,612,588,595,606,631,618,570,525,580,664,735,760,787,820,846,882,899,885,857,856,886,905,944,1008,1082,1137,1171,1213,1241,1263,1273,1291,1328,1365,1403,1436,1390,1327,1245,1175,1139,1115,1060,999,931,884,800,730,650,585,582,605,687,785,872,958,1037,1088,1112,1127,1089,1033,1070,1135,1244,1312,1386,1443,1457,1472,1494,1531,1548,1567,1553,1536,1534,1544
1222,1187,1182,1231,1298,1337,1379,1409,1391,1349,1322,1285,1257,1215,1170,1139,1091,1058,1014,969,935,850,793,742,723,762,816,833,856,878,897,924,960,946,937,955,972,950,904,870,837,785,703,718,740,761,756,795,831,867,905,948,998,1039,1045,1049,1074,1135,1187,1266,1324,1364,1400,1360,1265,1187,1100,1042,992,977,1010,1051,1085,1090,1057,985,977,1000,1028,1012,957,899,880,881,844,799,786,796,797,772,819,850,807,715,695,725,768,789,787,758,705,670,638,618,615,655,695,745,782,790,797,813,805,781,746,722,674,636,611,599,618,628,644,646,620,572,532,576,670,781,821,853,889,908,942,950,957,943,924,940,983,1019,1096,1153,1192,1260,1288,1318,1339,1355,1376,1399,1438,1473,1466,1388,1287,1200,1140,1107,1066,1025,969,928,895,850,760,687,600,592,588,644,732,805,906,981,1012,1050,1049,986,967,1032,1122,1210,1276,1368,1429,1492,1530,1571,1611,1620,1623,1605,1596,1604,1633
1261,1256,1261,1274,1318,1376,1409,1415,1376,1308,1288,1275,1234,1197,1159,1111,1057,1017,996,958,918,855,772,785,801,845,876,883,904,925,938,969,991,1005,979,990,978,922,885,850,806,767,720,726,756,753,760,795,821,853,895,925,967,1010,979,1026,1090,1153,1212,1269,1333,1373,1440,1385,1282,1212,1130,1077,1015,1012,1061,1102,1133,1132,1073,1020,1018,1045,1071,1062,1025,972,934,937,914,868,839,851,819,796,843,873,800,717,695,708,739,751,763,775,757,725,714,707,679,693,755,797,843,861,840,818,763,725,691,662,632,626,611,621,618,561,567,573,582,548,526,578,663,783,848,911,935,948,942,945,967,985,1010,1037,1080,1120,1202,1246,1283,1341,1360,1374,1410,1454,1467,1486,1508,1492,1446,1372,1250,1145,1085,1050,1025,1000,950,915,917,800,735,650,637,646,610,610,669,740,811,846,917,955,955,923,934,1015,1117,1196,1288,1358,1428,1494,1554,1608,1646,1662,1667,1650,1659,1670,1700
1288,1292,1306,1332,1361,1414,1418,1397,1344,1305,1258,1233,1195,1165,1131,1082,1029,984,934,917,876,840,801,844,901,931,935,956,966,970,991,1008,1040,1058,1028,1001,954,919,864,825,773,726,709,738,796,816,799,804,807,825,859,887,922,938,968,1022,1086,1154,1211,1273,1344,1398,1450,1400,1287,1217,1155,1100,1025,999,1078,1142,1164,1157,1104,1073,1076,1088,1119,1110,1057,997,978,987,974,885,889,891,810,814,876,916,840,737,697,658,686,697,705,746,800,805,788,772,758,756,798,851,879,870,836,786,741,706,661,656,657,657,637,592,548,563,529,528,520,512,543,598,664,755,836,891,913,885,896,895,925,967,1065,1123,1167,1254,1300,1327,1373,1387,1429,1475,1512,1530,1543,1552,1558,1498,1426,1380,1280,1180,1085,1035,985,935,900,850,817,762,675,650,677,692,674,626,615,652,728,791,842,872,899,861,922,1007,1075,1194,1255,1342,1424,1489,1526,1577,1601,1622,1650,1678,1701,1723,1753
1330,1351,1350,1385,1421,1431,1403,1367,1328,1294,1250,1208,1179,1122,1094,1064,1009,949,903,844,823,835,784,876,939,979,974,997,1036,1041,1056,1057,1075,1092,1042,1010,961,924,847,801,749,719,740,764,812,859,860,870,883,882,891,892,898,951,989,1045,1125,1184,1247,1315,1390,1427,1450,1420,1310,1225,1162,1117,1045,1022,1089,1158,1211,1197,1163,1148,1110,1138,1158,1173,1100,1040,1024,1026,974,951,933,867,850,860,932,963,922,825,745,707,698,684,672,727,800,859,859,838,822,812,839,880,858,838,782,753,706,671,688,697,718,660,599,543,597,619,588,575,575,568,553,596,675,748,817,861,844,816,823,878,949,1009,1068,1140,1197,1274,1328,1365,1386,1435,1490,1534,1583,1618,1642,1597,1555,1460,1446,1416,1317,1240,1175,1100,1022,940,875,850,750,710,677,704,729,767,791,744,645,634,643,704,759,810,838,855,903,1023,1094,1187,1269,1329,1413,1471,1516,1526,1551,1568,1581,1623,1696,1759,1813
1361,1401,1410,1421,1454,1434,1403,1341,1302,1265,1232,1199,1166,1126,1086,1047,994,930,872,818,806,816,792,835,896,972,1008,1034,1079,1120,1120,1122,1101,1066,1034,1031,991,905,829,787,732,735,767,781,830,877,918,941,962,986,1002,993,937,962,1003,1074,1148,1204,1278,1347,1421,1451,1495,1475,1357,1237,1192,1172,1100,1045,1082,1149,1224,1273,1233,1199,1200,1196,1193,1213,1180,1110,1077,1067,1025,1009,920,855,853,910,967,1017,1002,950,862,810,816,720,673,710,784,858,892,889,876,872,889,898,845,799,750,717,705,711,728,727,697,683,530,584,647,695,638,633,646,640,613,588,634,704,774,802,780,776,841,884,931,987,1061,1098,1185,1240,1275,1297,1342,1415,1478,1566,1644,1684,1674,1600,1542,1505,1450,1412,1365,1322,1277,1200,1067,940,902,890,830,757,725,771,833,858,882,874,825,740,681,661,714,764,796,843,926,1017,1092,1179,1253,1329,1391,1444,1462,1478,1489,1500,1535,1571,1631,1707,1773
1413,1434,1467,1475,1483,1453,1388,1356,1298,1256,1213,1187,1147,1112,1065,1029,971,906,857,837,874,899,894,884,934,974,1041,1059,1094,1154,1153,1114,1050,1022,1001,1012,960,916,812,754,735,786,802,813,824,859,908,959,1008,1067,1096,1057,1010,989,1035,1084,1156,1232,1299,1378,1428,1481,1505,1520,1435,1282,1200,1215,1175,1100,1113,1174,1225,1279,1314,1276,1254,1257,1266,1267,1250,1205,1124,1122,1091,1063,912,850,868,936,999,1047,1027,961,889,831,798,738,682,711,764,822,863,903,914,921,919,887,827,781,750,738,752,764,785,770,717,678,600,620,698,730,719,699,709,707,711,678,639,677,702,732,733,779,808,846,899,922,995,1058,1062,1150,1195,1213,1257,1374,1442,1552,1643,1710,1672,1622,1562,1556,1492,1457,1400,1367,1325,1262,1150,1012,970,922,862,790,831,868,905,938,958,956,883,874,775,685,695,749,797,851,927,1017,1104,1159,1222,1291,1345,1380,1403,1421,1438,1445,1476,1538,1599,1662,1724
1482,1500,1522,1531,1504,1444,1396,1352,1314,1266,1202,1172,1133,1068,1035,989,932,891,827,873,933,958,936,947,979,1015,1063,1100,1137,1158,1145,1083,1027,963,961,986,925,874,830,777,747,781,838,855,857,856,883,948,1012,1088,1133,1130,1075,1019,1070,1122,1148,1200,1275,1333,1402,1485,1525,1552,1492,1380,1242,1265,1225,1138,1162,1211,1277,1324,1360,1342,1334,1319,1325,1326,1292,1231,1182,1150,1121,1017,900,850,908,957,1020,1054,1015,948,892,839,813,765,700,709,755,794,834,854,876,897,874,863,820,794,770,778,789,814,804,767,713,651,615,592,683,748,766,750,773,789,766,725,695,668,696,695,726,745,777,792,833,878,927,979,1038,1050,1087,1164,1247,1342,1427,1520,1613,1706,1716,1685,1627,1587,1540,1505,1460,1392,1335,1290,1225,1072,1005,937,860,837,884,929,966,1010,1007,983,945,888,825,757,722,727,753,832,899,985,1053,1112,1181,1242,1311,1325,1344,1353,1377,1404,1428,1489,1528,1610,1689
1551,1555,1565,1539,1495,1451,1404,1357,1317,1267,1218,1159,1116,1023,979,944,905,835,841,924,982,992,980,1014,1034,1070,1100,1119,1157,1159,1103,1054,985,939,920,913,893,834,796,781,759,797,856,897,912,909,926,965,1013,1072,1148,1167,1132,1075,1121,1179,1229,1225,1280,1342,1432,1505,1537,1602,1557,1467,1340,1332,1260,1170,1200,1244,1293,1360,1415,1411,1402,1376,1373,1340,1267,1211,1188,1153,1110,1012,922,892,946,1000,1042,1046,999,941,903,840,832,768,710,691,713,748,778,813,831,836,836,840,845,820,813,828,835,840,799,750,699,649,607,572,676,736,792,814,842,849,805,780,750,717,730,756,772,802,830,852,872,868,872,916,954,998,1032,1133,1230,1303,1401,1489,1592,1676,1710,1714,1710,1650,1592,1537,1475,1395,1380,1322,1265,1142,1040,957,892,865,903,977,1041,1052,1028,984,951,888,838,797,753,732,747,774,858,924,986,1040,1106,1175,1212,1250,1277,1297,1324,1365,1403,1450,1516,1585,1676
1601,1585,1565,1533,1505,1446,1415,1343,1310,1262,1207,1154,1107,1022,958,893,854,868,900,959,1005,1024,1044,1078,1096,1122,1140,1166,1184,1161,1088,1030,1007,923,889,869,842,797,767,768,794,843,890,929,962,971,984,1028,1068,1093,1148,1191,1172,1117,1150,1203,1283,1304,1317,1375,1445,1528,1562,1642,1600,1522,1437,1385,1317,1221,1251,1276,1337,1382,1429,1472,1464,1456,1411,1356,1293,1237,1199,1178,1135,1017,922,905,974,1018,1047,1030,980,936,901,865,844,787,738,695,689,715,755,785,785,794,814,825,848,863,867,877,888,845,798,725,700,664,597,600,665,727,778,849,892,899,838,807,781,762,765,792,831,863,902,933,974,969,914,916,939,960,1014,1139,1231,1326,1417,1494,1585,1636,1666,1708,1767,1707,1640,1567,1492,1400,1425,1350,1290,1207,1087,1020,992,975,984,1022,1078,1067,1030,988,943,898,862,854,819,824,827,809,814,887,932,990,1050,1094,1145,1182,1212,1235,1295,1361,1419,1461,1536,1583,1652
1586,1548,1522,1514,1488,1456,1401,1337,1299,1254,1233,1167,1117,1037,967,900,927,956,1000,1024,1059,1067,1080,1114,1154,1172,1186,1195,1186,1137,1086,1035,1003,955,894,852,799,772,789,822,865,895,930,962,1008,1019,1037,1074,1126,1163,1205,1245,1234,1147,1162,1219,1294,1345,1377,1417,1472,1518,1620,1690,1655,1560,1487,1437,1362,1305,1326,1360,1400,1439,1479,1502,1492,1460,1427,1349,1290,1239,1231,1215,1167,1025,900,943,987,1020,1049,1030,965,925,880,861,827,789,737,730,707,716,739,753,765,798,816,833,853,887,920,935,921,844,800,755,720,667,591,594,655,721,789,856,911,908,868,842,823,802,816,840,879,915,983,1032,1049,1046,988,1008,1017,1057,1120,1192,1235,1330,1432,1521,1589,1587,1618,1688,1768,1767,1700,1605,1510,1447,1477,1400,1322,1242,1157,1110,1075,1052,1063,1098,1105,1095,1047,991,930,888,908,923,901,886,907,860,809,829,918,956,1018,1026,1074,1130,1169,1234,1291,1342,1382,1463,1563,1639,1727
1552,1523,1487,1475,1451,1436,1404,1343,1305,1275,1241,1200,1137,1067,985,930,900,955,1041,1072,1120,1139,1136,1155,1185,1219,1241,1225,1184,1123,1083,1032,994,935,894,842,790,801,820,840,889,934,970,1006,1048,1078,1092,1132,1182,1232,1256,1297,1309,1232,1194,1239,1304,1326,1395,1472,1545,1611,1680,1715,1695,1615,1500,1455,1405,1405,1381,1390,1434,1509,1543,1541,1490,1462,1432,1348,1307,1282,1278,1270,1190,1050,940,976,1016,1062,1059,1041,957,916,873,857,794,764,759,759,716,705,738,761,786,805,813,835,867,919,960,972,902,858,813,792,750,682,622,642,704,755,803,872,928,929,916,916,901,883,910,929,983,1022,1082,1113,1107,1085,1085,1093,1123,1147,1179,1220,1283,1372,1424,1501,1542,1566,1603,1658,1749,1800,1762,1652,1535,1507,1530,1465,1340,1262,1197,1155,1112,1106,1122,1140,1140,1085,1001,964,906,905,923,961,984,991,972,925,850,824,893,932,956,999,1072,1133,1186,1241,1278,1326,1388,1494,1582,1688,1772
1514,1501,1465,1437,1422,1417,1396,1361,1330,1290,1248,1227,1154,1113,1050,982,910,941,1007,1070,1128,1164,1190,1206,1229,1254,1250,1218,1184,1130,1078,1017,963,929,875,821,802,831,866,887,892,924,974,1034,1082,1122,1159,1189,1234,1303,1324,1341,1366,1315,1278,1314,1369,1415,1440,1487,1564,1631,1691,1741,1750,1660,1567,1487,1442,1463,1468,1456,1505,1554,1582,1553,1516,1476,1432,1369,1338,1315,1297,1278,1194,1100,1000,992,1031,1082,1078,1009,954,908,866,851,799,799,805,762,727,703,724,751,776,789,814,848,882,940,992,982,934,857,860,855,775,707,645,629,690,752,835,878,897,937,976,992,967,962,977,1035,1067,1110,1162,1185,1187,1195,1206,1199,1255,1261,1245,1230,1273,1337,1375,1447,1503,1557,1601,1666,1734,1802,1807,1730,1647,1633,1612,1530,1437,1350,1250,1212,1180,1172,1197,1185,1145,1067,992,944,935,960,970,989,1037,1055,1020,989,934,910,930,943,996,1042,1081,1128,1174,1217,1259,1328,1413,1515,1602,1680,1778
1506,1467,1442,1413,1393,1387,1370,1351,1354,1323,1257,1233,1182,1132,1068,1008,927,930,978,1045,1103,1160,1214,1253,1276,1272,1236,1198,1154,1121,1086,1006,948,918,858,809,821,867,895,925,952,960,987,1029,1074,1113,1161,1216,1271,1337,1385,1401,1409,1380,1345,1334,1396,1437,1492,1536,1588,1668,1742,1784,1780,1725,1617,1537,1486,1476,1524,1534,1556,1593,1597,1583,1510,1450,1411,1370,1353,1323,1270,1234,1163,1093,1064,1040,1065,1093,1069,1008,964,914,880,866,840,842,800,759,728,702,706,729,746,780,824,865,896,953,1007,959,932,920,917,903,830,732,672,606,692,749,809,847,875,922,991,1021,1050,1050,1078,1130,1148,1183,1232,1249,1262,1300,1304,1328,1343,1348,1311,1329,1371,1410,1422,1476,1545,1577,1617,1657,1736,1812,1830,1772,1712,1685,1679,1597,1517,1412,1327,1305,1256,1262,1260,1220,1145,1060,992,971,987,1006,1021,1038,1072,1094,1074,1035,1023,1003,1024,1022,1028,1096,1138,1179,1204,1224,1244,1331,1420,1508,1585,1694,1772
1510,1466,1409,1377,1364,1356,1336,1323,1331,1305,1247,1199,1172,1106,1063,1006,935,914,970,1040,1111,1172,1216,1281,1311,1308,1267,1220,1180,1137,1094,1017,965,913,846,823,854,899,930,969,993,1018,1037,1082,1102,1141,1205,1252,1302,1353,1427,1469,1463,1440,1395,1387,1418,1487,1545,1592,1633,1687,1774,1828,1817,1772,1675,1605,1556,1521,1536,1583,1604,1632,1641,1609,1547,1499,1409,1366,1347,1313,1278,1276,1208,1108,1117,1108,1109,1087,1028,981,967,936,915,901,878,842,790,745,739,712,706,727,750,782,830,877,926,974,1016,1008,985,980,953,903,842,757,685,615,666,725,778,843,883,935,997,1091,1126,1128,1193,1210,1238,1250,1281,1316,1359,1387,1399,1402,1398,1389,1397,1423,1473,1494,1508,1571,1597,1613,1644,1698,1761,1835,1865,1812,1747,1767,1760,1667,1575,1450,1400,1385,1350,1350,1295,1210,1137,1062,1000,983,1024,1062,1074,1085,1114,1152,1147,1126,1095,1086,1094,1082,1083,1141,1193,1248,1273,1310,1336,1400,1447,1521,1614,1679,1745
1503,1442,1392,1379,1359,1337,1318,1312,1302,1279,1240,1182,1139,1083,1044,996,929,929,1000,1063,1135,1184,1216,1270,1309,1327,1277,1219,1172,1121,1067,1006,964,909,845,839,880,913,965,1018,1050,1061,1066,1124,1152,1180,1222,1285,1348,1398,1452,1507,1527,1512,1450,1478,1488,1520,1599,1640,1696,1751,1803,1856,1852,1817,1750,1662,1632,1606,1571,1589,1638,1659,1618,1574,1519,1468,1414,1393,1359,1307,1277,1235,1145,1125,1167,1173,1136,1082,1021,976,946,934,923,901,861,812,793,767,755,711,702,730,772,817,848,883,948,1012,1050,1073,1051,1007,928,874,803,760,681,622,610,669,755,862,900,944,999,1049,1119,1164,1257,1314,1323,1327,1345,1381,1395,1389,1379,1365,1341,1388,1460,1530,1559,1579,1595,1602,1626,1655,1681,1732,1790,1854,1896,1875,1837,1833,1826,1772,1655,1545,1505,1450,1425,1382,1287,1215,1140,1078,996,1002,1040,1101,1127,1147,1167,1218,1228,1199,1167,1148,1150,1157,1140,1142,1197,1261,1316,1373,1425,1448,1526,1585,1625,1693,1767
1486,1416,1381,1360,1343,1326,1298,1272,1274,1245,1223,1164,1108,1059,1009,947,926,968,1027,1108,1146,1208,1255,1290,1316,1336,1299,1230,1160,1093,1050,988,940,874,839,847,887,942,996,1046,1089,1113,1110,1149,1203,1237,1277,1316,1398,1459,1496,1534,1581,1562,1497,1521,1567,1584,1622,1699,1743,1799,1844,1878,1875,1832,1761,1697,1678,1652,1603,1585,1623,1644,1588,1530,1462,1425,1374,1379,1329,1308,1262,1189,1147,1169,1203,1197,1126,1081,1025,990,953,926,902,879,825,791,774,749,736,707,713,751,795,850,882,912,960,1005,1055,1109,1073,986,916,824,774,760,712,670,638,640,731,815,865,924,966,1032,1118,1189,1263,1317,1340,1350,1358,1348,1336,1314,1289,1271,1285,1299,1375,1528,1602,1650,1663,1654,1663,1683,1731,1763,1817,1875,1923,1946,1924,1915,1900,1825,1707,1600,1550,1512,1445,1365,1272,1195,1159,1066,1021,1043,1075,1124,1155,1185,1206,1242,1284,1283,1254,1244,1238,1227,1172,1160,1222,1290,1346,1402,1472,1520,1556,1640,1699,1725,1794
1485,1440,1368,1330,1325,1307,1287,1273,1250,1218,1187,1134,1077,1029,976,936,963,1019,1082,1142,1190,1229,1286,1318,1357,1378,1281,1210,1159,1094,1031,981,938,907,852,862,907,955,1018,1061,1106,1150,1155,1179,1225,1294,1338,1397,1431,1491,1541,1583,1613,1626,1545,1575,1623,1656,1681,1720,1783,1836,1880,1919,1878,1848,1720,1692,1670,1638,1601,1608,1646,1596,1554,1481,1416,1375,1350,1323,1306,1294,1253,1191,1193,1210,1243,1188,1115,1079,1021,992,977,937,930,912,850,799,777,756,723,715,734,778,827,865,909,940,981,1029,1082,1107,1039,996,881,834,808,775,739,693,660,632,692,753,822,878,958,1065,1123,1187,1261,1253,1262,1272,1283,1288,1247,1224,1183,1185,1212,1252,1338,1436,1554,1623,1665,1688,1709,1724,1760,1816,1865,1893,1930,1910,1908,1901,1871,1830,1750,1650,1580,1515,1410,1330,1242,1170,1099,1066,1078,1093,1118,1146,1189,1225,1237,1293,1329,1349,1325,1314,1306,1296,1190,1229,1256,1304,1384,1460,1521,1584,1607,1668,1730,1801,1878
1504,1450,1381,1335,1308,1283,1261,1237,1225,1211,1177,1120,1065,1000,948,957,1014,1079,1127,1176,1207,1243,1288,1331,1378,1370,1289,1215,1127,1086,1012,956,914,872,877,919,945,974,1039,1082,1115,1157,1199,1223,1268,1328,1397,1439,1495,1541,1569,1619,1645,1635,1614,1627,1678,1721,1739,1766,1824,1874,1925,1932,1886,1830,1727,1729,1726,1665,1651,1652,1659,1606,1548,1469,1375,1371,1360,1320,1272,1256,1230,1220,1255,1269,1249,1175,1099,1068,1013,986,971,947,933,890,848,794,776,749,753,723,750,796,843,887,937,995,1031,1073,1114,1129,1033,957,900,881,856,777,762,721,722,645,653,744,799,867,938,1036,1142,1175,1215,1198,1170,1182,1194,1198,1184,1167,1130,1117,1145,1196,1276,1377,1485,1555,1607,1661,1698,1740,1780,1818,1856,1870,1855,1837,1835,1811,1803,1793,1747,1690,1587,1512,1400,1310,1207,1137,1116,1124,1139,1144,1178,1179,1209,1259,1290,1326,1383,1414,1425,1387,1370,1300,1281,1295,1326,1345,1426,1478,1545,1613,1670,1743,1770,1841,1914
1503,1454,1383,1319,1301,1257,1229,1222,1207,1196,1182,1103,1054,985,964,997,1059,1106,1144,1184,1230,1269,1301,1335,1374,1359,1294,1224,1151,1062,957,962,906,882,900,954,959,969,1030,1083,1127,1171,1212,1269,1308,1357,1428,1488,1531,1580,1626,1661,1683,1679,1645,1674,1746,1803,1805,1823,1884,1929,1939,1905,1872,1788,1760,1768,1747,1674,1674,1699,1653,1586,1543,1495,1445,1413,1403,1350,1305,1237,1239,1268,1279,1302,1262,1170,1117,1062,1015,976,965,943,929,856,826,804,790,784,754,729,763,810,852,910,959,1024,1066,1102,1140,1095,999,980,963,962,877,820,782,763,742,699,630,718,793,849,914,987,1090,1143,1152,1120,1110,1103,1114,1144,1125,1098,1067,1048,1087,1159,1263,1334,1442,1503,1556,1604,1644,1693,1733,1779,1825,1821,1801,1775,1742,1725,1718,1712,1701,1661,1580,1507,1387,1280,1195,1188,1159,1177,1200,1199,1228,1241,1273,1312,1343,1386,1439,1469,1467,1432,1370,1322,1328,1363,1384,1389,1440,1529,1612,1661,1714,1788,1831,1882,1935
1493,1422,1384,1336,1314,1270,1219,1202,1198,1179,1151,1097,1027,975,994,1047,1105,1139,1190,1214,1250,1288,1321,1378,1401,1333,1268,1201,1170,1093,1014,966,922,885,925,964,984,975,985,1051,1095,1172,1240,1263,1285,1335,1402,1455,1506,1556,1592,1634,1698,1703,1698,1718,1780,1842,1885,1903,1942,1958,1961,1890,1853,1781,1803,1797,1751,1700,1710,1725,1677,1638,1581,1537,1460,1465,1425,1350,1297,1303,1309,1312,1315,1328,1275,1165,1097,1068,1013,983,955,919,887,858,846,821,820,823,729,738,778,833,878,934,990,1038,1087,1143,1154,1094,1070,1053,1025,967,900,845,816,793,755,685,656,687,771,820,878,941,1020,1067,1065,1058,1051,1051,1056,1073,1057,1039,1000,1001,1063,1131,1213,1273,1354,1434,1502,1556,1594,1618,1664,1721,1793,1788,1755,1731,1703,1682,1650,1636,1623,1604,1557,1500,1367,1260,1225,1231,1242,1239,1269,1264,1261,1302,1333,1373,1431,1460,1487,1514,1532,1487,1380,1347,1369,1434,1458,1457,1470,1561,1626,1705,1767,1826,1869,1900,1959
1475,1400,1399,1367,1337,1305,1246,1195,1186,1160,1119,1066,1007,983,1030,1095,1151,1185,1203,1245,1268,1305,1352,1402,1405,1344,1254,1202,1134,1070,1011,949,903,913,938,981,1029,1037,1044,1033,1057,1087,1135,1210,1241,1300,1389,1431,1442,1499,1541,1595,1658,1714,1757,1758,1797,1874,1941,1974,1993,2002,1985,1887,1840,1839,1844,1807,1763,1747,1765,1728,1674,1629,1615,1575,1500,1503,1457,1370,1327,1364,1376,1373,1353,1340,1262,1165,1092,1045,1012,980,950,931,898,867,868,858,842,818,739,758,804,851,904,951,1016,1071,1115,1169,1177,1146,1141,1166,1090,995,925,857,832,807,778,713,649,690,765,808,835,860,910,965,1002,996,998,999,1011,1023,1002,972,949,977,1030,1081,1150,1222,1302,1382,1419,1495,1534,1586,1624,1694,1740,1742,1733,1688,1660,1631,1608,1566,1548,1529,1515,1472,1370,1295,1292,1302,1314,1311,1320,1334,1353,1370,1391,1416,1506,1546,1556,1586,1586,1500,1397,1385,1427,1494,1526,1530,1522,1575,1669,1774,1817,1861,1894,1946,1965
1539,1425,1419,1381,1349,1323,1302,1258,1196,1172,1128,1065,1019,1002,1036,1100,1175,1229,1248,1251,1281,1338,1378,1427,1386,1319,1252,1209,1063,1009,986,940,922,958,980,998,1034,1053,1077,1123,1115,1150,1177,1226,1233,1292,1342,1377,1419,1459,1507,1567,1611,1677,1756,1817,1836,1902,1962,2010,2036,2015,1966,1946,1882,1902,1891,1837,1815,1812,1810,1752,1730,1714,1693,1617,1563,1538,1480,1400,1363,1388,1422,1432,1380,1337,1260,1160,1095,1037,1007,977,950,924,898,893,908,895,853,810,757,787,825,872,940,976,1031,1075,1138,1195,1234,1230,1212,1168,1107,1035,937,900,862,817,772,712,627,665,748,777,771,770,850,900,927,936,924,942,957,967,937,929,926,952,1010,1071,1142,1192,1271,1334,1408,1464,1525,1590,1645,1716,1726,1709,1690,1665,1639,1583,1536,1510,1473,1469,1464,1435,1420,1376,1372,1376,1381,1392,1400,1418,1427,1470,1494,1492,1549,1603,1623,1625,1567,1490,1420,1439,1491,1554,1606,1627,1643,1689,1718,1789,1875,1918,1933,1942,1930
1537,1469,1448,1403,1346,1336,1321,1297,1240,1187,1128,1099,1066,1024,1062,1117,1179,1250,1282,1295,1320,1378,1425,1417,1353,1308,1216,1174,1096,1065,972,919,963,1010,1018,1036,1072,1074,1108,1150,1179,1199,1221,1277,1299,1293,1331,1385,1425,1471,1525,1563,1624,1694,1749,1816,1876,1931,1996,2048,2046,2009,2013,1995,1976,1945,1948,1885,1861,1868,1823,1772,1744,1762,1747,1641,1608,1569,1467,1407,1416,1421,1444,1466,1442,1350,1260,1150,1075,1040,1000,992,957,932,934,936,941,926,839,777,780,822,875,911,959,1037,1064,1096,1130,1193,1262,1297,1225,1190,1115,1060,980,917,877,837,805,722,682,678,718,707,706,727,787,855,865,838,822,860,900,910,879,864,892,938,980,1038,1096,1149,1227,1310,1434,1505,1569,1614,1674,1712,1696,1666,1657,1636,1590,1546,1491,1471,1431,1411,1381,1384,1428,1438,1444,1460,1459,1468,1464,1504,1528,1538,1549,1550,1567,1623,1658,1642,1580,1507,1488,1528,1576,1620,1673,1691,1727,1767,1800,1865,1924,1962,1954,1950,1903
1528,1491,1457,1398,1363,1336,1309,1282,1230,1188,1164,1128,1046,1039,1084,1143,1190,1246,1303,1335,1361,1407,1436,1375,1318,1259,1169,1147,1093,1024,967,944,970,985,1020,1059,1105,1118,1124,1170,1235,1260,1278,1320,1351,1344,1366,1405,1458,1489,1533,1606,1644,1709,1800,1844,1896,1960,2018,2021,1998,1979,1983,1994,1987,1971,1968,1943,1910,1884,1831,1803,1786,1781,1731,1669,1625,1557,1460,1448,1475,1482,1490,1501,1470,1375,1262,1150,1137,1072,1051,1020,985,986,987,991,964,922,836,773,803,862,906,950,991,1050,1084,1125,1164,1211,1295,1332,1260,1211,1117,1065,992,917,875,830,792,772,762,752,768,679,655,675,742,780,777,760,730,770,850,845,834,867,918,937,956,1002,1059,1127,1205,1341,1474,1531,1596,1647,1685,1691,1654,1634,1616,1590,1552,1503,1468,1416,1377,1355,1325,1339,1403,1458,1505,1538,1535,1567,1573,1603,1606,1604,1602,1617,1628,1702,1719,1672,1632,1600,1571,1595,1641,1675,1724,1756,1784,1837,1863,1918,1972,2002,1992,1955,1902
1548,1463,1442,1397,1351,1337,1311,1291,1243,1201,1161,1115,1041,1059,1107,1154,1219,1266,1302,1364,1403,1439,1427,1388,1302,1272,1195,1135,1067,1005,966,947,993,1018,1039,1082,1135,1177,1204,1232,1296,1320,1336,1347,1360,1375,1388,1432,1487,1518,1562,1631,1682,1716,1807,1918,1947,1994,1983,1958,1939,1904,1899,1918,1900,1941,1941,1943,1933,1890,1855,1833,1831,1781,1718,1670,1632,1587,1536,1526,1546,1559,1575,1544,1538,1435,1275,1212,1170,1110,1090,1061,1046,1033,1042,1000,953,917,827,785,831,876,923,959,1054,1093,1109,1152,1209,1267,1337,1355,1300,1200,1120,1065,995,935,885,847,865,850,842,858,851,840,721,751,692,718,707,698,724,695,740,804,839,911,958,985,1018,1050,1093,1159,1240,1293,1447,1560,1621,1650,1660,1646,1632,1599,1568,1534,1495,1451,1419,1373,1340,1296,1285,1351,1395,1454,1515,1573,1606,1639,1666,1674,1664,1672,1677,1683,1708,1759,1765,1735,1696,1680,1674,1710,1732,1745,1776,1814,1854,1890,1924,1959,1990,1979,1949,1923,1889
1534,1496,1418,1386,1350,1331,1301,1295,1232,1183,1132,1064,1046,1081,1140,1193,1232,1279,1329,1378,1422,1454,1419,1385,1323,1287,1210,1125,1047,990,956,985,1034,1043,1075,1104,1162,1214,1260,1291,1327,1374,1389,1417,1421,1423,1446,1471,1510,1561,1592,1624,1705,1767,1848,1954,1989,1984,1935,1904,1884,1863,1827,1830,1838,1886,1890,1891,1886,1852,1842,1851,1838,1771,1727,1721,1720,1671,1613,1587,1608,1628,1633,1585,1591,1507,1345,1300,1235,1180,1131,1104,1095,1061,1019,995,954,919,811,798,842,892,939,1000,1094,1139,1162,1203,1238,1303,1364,1372,1317,1220,1157,1085,1030,967,912,905,925,914,903,925,869,816,794,811,690,650,723,738,783,712,724,769,831,895,943,1011,1064,1111,1156,1207,1279,1346,1454,1562,1643,1657,1637,1609,1596,1562,1513,1481,1445,1409,1362,1325,1293,1258,1312,1369,1417,1451,1533,1602,1674,1712,1725,1742,1737,1727,1729,1758,1775,1788,1824,1789,1771,1767,1769,1787,1820,1829,1837,1871,1922,1963,1978,1973,1959,1939,1905,1861,1839
1509,1483,1376,1359,1331,1312,1288,1271,1220,1169,1103,1085,1093,1120,1164,1207,1260,1304,1349,1383,1433,1418,1398,1367,1321,1259,1220,1130,1040,986,986,1032,1066,1084,1124,1166,1190,1239,1298,1348,1395,1429,1433,1485,1474,1476,1482,1493,1542,1596,1637,1692,1717,1795,1887,1944,1989,1969,1921,1859,1850,1832,1793,1773,1797,1830,1816,1822,1812,1784,1781,1804,1816,1789,1776,1776,1791,1780,1707,1663,1659,1673,1646,1618,1605,1510,1407,1300,1227,1192,1129,1084,1049,1053,1013,979,926,874,788,808,858,927,970,1044,1095,1152,1187,1239,1284,1342,1383,1415,1352,1250,1180,1127,1045,990,977,990,1008,985,953,941,856,843,848,863,817,800,714,737,800,762,690,757,819,875,936,992,1059,1126,1215,1262,1301,1399,1493,1588,1627,1622,1589,1557,1547,1499,1472,1445,1411,1374,1308,1276,1230,1267,1324,1372,1433,1490,1529,1605,1690,1747,1778,1804,1817,1794,1803,1841,1865,1878,1878,1868,1860,1854,1872,1883,1896,1911,1925,1936,1965,1983,1956,1932,1912,1880,1848,1799,1773
1510,1481,1413,1340,1307,1285,1269,1236,1200,1170,1134,1092,1093,1148,1195,1250,1266,1298,1350,1394,1436,1415,1368,1347,1323,1272,1220,1125,1037,1002,1025,1066,1097,1141,1166,1217,1261,1305,1336,1400,1449,1478,1496,1532,1528,1535,1518,1522,1590,1654,1695,1760,1802,1859,1914,1970,1978,1941,1916,1874,1830,1793,1767,1735,1766,1800,1747,1731,1759,1722,1718,1761,1793,1814,1810,1793,1774,1759,1721,1709,1692,1690,1649,1603,1565,1500,1385,1292,1212,1150,1110,1069,1045,1021,1009,976,909,857,790,829,875,940,997,1077,1132,1172,1217,1272,1332,1382,1430,1460,1400,1275,1200,1147,1105,1050,1065,1158,1074,1077,1007,950,935,900,910,889,841,756,710,751,826,775,687,749,819,894,965,1019,1057,1132,1226,1285,1365,1433,1519,1569,1599,1572,1533,1498,1476,1451,1416,1384,1349,1302,1261,1217,1206,1267,1316,1363,1407,1472,1544,1604,1663,1726,1758,1802,1858,1873,1887,1915,1942,1957,1954,1952,1957,1956,1954,1973,1973,1982,1994,2010,2000,1961,1925,1898,1862,1834,1809,1746,1709
1513,1468,1449,1366,1311,1288,1266,1235,1222,1184,1118,1130,1158,1194,1235,1282,1309,1342,1397,1429,1464,1452,1405,1345,1305,1269,1225,1120,1037,1012,1064,1092,1137,1183,1209,1246,1296,1346,1405,1438,1486,1507,1555,1600,1597,1592,1585,1581,1626,1679,1733,1801,1866,1933,1959,1983,1958,1913,1880,1841,1807,1776,1750,1724,1732,1739,1674,1671,1715,1661,1694,1750,1782,1788,1757,1740,1705,1671,1676,1672,1659,1648,1605,1546,1535,1485,1385,1275,1187,1120,1075,1025,1012,995,1000,950,877,846,798,839,881,953,1022,1093,1143,1173,1226,1288,1349,1412,1497,1512,1450,1330,1247,1210,1182,1167,1172,1170,1144,1095,1047,1017,992,982,947,886,744,734,764,823,873,800,690,777,831,889,952,1013,1082,1146,1237,1313,1414,1481,1538,1575,1558,1494,1466,1441,1419,1398,1357,1317,1280,1246,1202,1184,1207,1250,1304,1360,1408,1468,1530,1618,1679,1738,1776,1823,1860,1889,1880,1895,1926,1959,2013,2029,2044,2056,2069,2056,2056,2040,2015,1999,1968,1946,1925,1883,1843,1799,1753,1710,1660
1492,1464,1443,1421,1362,1338,1301,1278,1232,1188,1145,1153,1192,1248,1278,1332,1349,1377,1421,1471,1502,1477,1437,1350,1295,1253,1230,1100,1045,1033,1095,1140,1179,1222,1267,1305,1343,1389,1437,1479,1522,1553,1592,1643,1662,1655,1664,1643,1652,1713,1768,1828,1909,1960,1960,1960,1939,1899,1851,1807,1781,1754,1715,1676,1709,1706,1621,1647,1641,1660,1705,1746,1786,1747,1715,1683,1657,1636,1634,1603,1607,1585,1532,1484,1455,1441,1400,1280,1187,1120,1075,1031,991,981,975,909,861,812,812,867,923,1006,1067,1135,1163,1193,1233,1283,1353,1392,1504,1580,1500,1417,1350,1305,1267,1275,1288,1260,1219,1178,1094,1073,1011,946,904,840,749,771,835,877,907,820,725,738,802,856,908,980,1063,1158,1255,1336,1421,1480,1531,1561,1513,1457,1410,1382,1368,1333,1282,1268,1217,1183,1163,1194,1238,1284,1331,1372,1441,1504,1556,1622,1709,1745,1759,1802,1848,1856,1835,1850,1883,1930,1970,2009,2064,2101,2131,2114,2104,2024,1992,1943,1919,1912,1892,1854,1817,1770,1725,1713,1664
1514,1440,1422,1414,1400,1380,1330,1260,1230,1190,1137,1175,1220,1249,1281,1338,1369,1410,1447,1498,1537,1517,1465,1395,1310,1230,1162,1107,1085,1062,1104,1158,1215,1265,1316,1353,1403,1441,1486,1553,1572,1584,1635,1662,1700,1706,1734,1728,1698,1741,1783,1864,1932,1960,1943,1914,1892,1862,1829,1791,1748,1722,1657,1633,1639,1655,1579,1590,1610,1644,1701,1747,1779,1766,1721,1659,1614,1594,1565,1523,1511,1488,1460,1402,1380,1384,1367,1290,1190,1122,1082,1013,993,950,936,877,832,812,855,911,975,1043,1116,1160,1188,1218,1256,1298,1372,1479,1546,1612,1580,1500,1450,1400,1375,1343,1307,1230,1186,1130,1094,1033,966,889,856,792,752,807,874,967,958,880,790,707,742,805,879,957,1033,1130,1236,1355,1419,1471,1526,1501,1462,1413,1367,1326,1299,1261,1239,1210,1158,1133,1172,1226,1269,1316,1368,1418,1468,1543,1620,1668,1715,1710,1734,1783,1828,1820,1794,1814,1850,1894,1926,1970,2034,2094,2138,2128,2099,2027,1950,1913,1881,1868,1854,1832,1807,1755,1709,1690,1661
1545,1484,1423,1407,1392,1385,1341,1295,1235,1197,1162,1211,1254,1286,1290,1323,1369,1409,1467,1515,1558,1531,1467,1430,1337,1272,1217,1157,1106,1101,1135,1188,1253,1307,1358,1385,1463,1499,1519,1579,1632,1647,1670,1713,1738,1760,1810,1811,1787,1798,1849,1901,1932,1934,1901,1892,1854,1824,1803,1762,1708,1672,1607,1575,1583,1603,1549,1571,1615,1653,1689,1744,1786,1753,1713,1668,1619,1566,1515,1455,1433,1430,1398,1339,1334,1337,1340,1300,1200,1132,1099,1033,978,927,873,829,800,842,899,964,1018,1086,1143,1173,1201,1241,1283,1339,1395,1474,1587,1648,1610,1558,1514,1459,1428,1335,1311,1220,1160,1090,1038,951,888,841,810,756,792,862,959,984,944,895,851,750,712,779,852,943,1046,1147,1223,1334,1411,1445,1470,1456,1425,1395,1353,1285,1248,1222,1187,1148,1114,1120,1167,1224,1279,1330,1399,1454,1515,1579,1635,1660,1679,1685,1713,1774,1807,1793,1762,1789,1827,1856,1892,1940,2005,2062,2095,2104,2080,2024,1967,1900,1848,1831,1814,1803,1771,1731,1678,1656,1620
1564,1480,1443,1418,1402,1350,1321,1313,1329,1237,1188,1225,1282,1314,1315,1374,1402,1448,1492,1548,1577,1532,1484,1437,1337,1277,1230,1150,1165,1129,1128,1198,1263,1311,1359,1425,1500,1560,1585,1615,1677,1691,1716,1757,1803,1834,1853,1883,1868,1853,1898,1939,1946,1904,1871,1839,1806,1773,1758,1737,1669,1629,1567,1516,1525,1524,1522,1572,1615,1658,1706,1761,1781,1755,1706,1652,1596,1569,1503,1430,1400,1372,1331,1316,1285,1286,1314,1267,1228,1143,1091,1028,972,886,851,808,843,893,942,994,1055,1132,1173,1189,1203,1248,1291,1352,1400,1486,1573,1634,1622,1570,1510,1459,1421,1366,1300,1207,1137,1067,1007,910,859,801,773,790,877,948,974,932,877,837,782,774,759,777,859,955,1067,1154,1229,1318,1376,1415,1404,1390,1373,1355,1304,1242,1211,1162,1128,1100,1088,1147,1199,1248,1295,1352,1411,1476,1526,1561,1577,1613,1641,1678,1719,1764,1757,1742,1742,1768,1799,1833,1878,1926,1972,2022,2033,2046,2057,1994,1950,1902,1836,1799,1774,1753,1735,1702,1662,1596,1567
1561,1547,1527,1499,1449,1353,1345,1361,1291,1238,1206,1258,1305,1337,1340,1377,1437,1483,1541,1591,1580,1560,1495,1430,1342,1267,1250,1215,1200,1141,1164,1232,1285,1311,1380,1441,1514,1577,1619,1659,1715,1731,1775,1802,1841,1875,1903,1934,1945,1944,1929,1928,1930,1907,1861,1811,1773,1730,1718,1693,1654,1619,1529,1476,1481,1496,1536,1582,1627,1677,1713,1760,1792,1753,1689,1624,1614,1612,1575,1460,1395,1337,1300,1288,1245,1239,1270,1223,1174,1150,1088,1029,980,934,873,817,859,934,1001,1045,1108,1186,1204,1218,1247,1268,1308,1380,1431,1517,1604,1633,1590,1567,1510,1461,1388,1340,1305,1210,1127,1045,962,860,812,805,826,879,933,989,962,887,883,814,801,799,787,811,877,968,1044,1166,1248,1323,1345,1333,1353,1330,1316,1282,1250,1218,1163,1117,1094,1059,1123,1185,1234,1271,1316,1353,1392,1444,1474,1498,1526,1569,1627,1666,1702,1710,1704,1705,1724,1755,1783,1832,1880,1889,1911,1969,2000,2026,2032,1979,1935,1897,1817,1778,1738,1716,1686,1667,1640,1584,1561
1636,1570,1532,1485,1498,1381,1385,1364,1307,1264,1256,1295,1350,1366,1366,1436,1469,1505,1551,1616,1621,1595,1540,1487,1392,1325,1265,1262,1220,1180,1203,1262,1330,1390,1430,1489,1541,1594,1661,1698,1742,1793,1828,1860,1888,1921,1951,1975,1972,1956,1911,1898,1904,1881,1835,1811,1740,1692,1653,1615,1601,1554,1502,1435,1462,1522,1540,1579,1611,1660,1704,1753,1764,1759,1668,1654,1664,1654,1600,1487,1410,1360,1313,1281,1253,1218,1208,1164,1146,1131,1097,1020,983,903,820,836,903,971,1038,1082,1165,1203,1216,1240,1272,1305,1353,1392,1465,1538,1608,1611,1564,1524,1484,1459,1411,1323,1260,1207,1117,1025,940,847,817,845,888,950,1017,1036,950,855,745,838,867,869,870,883,907,943,988,1114,1207,1254,1297,1289,1304,1288,1260,1230,1208,1155,1120,1067,1038,1071,1146,1198,1234,1261,1289,1324,1359,1394,1414,1451,1500,1544,1592,1627,1633,1632,1645,1680,1718,1751,1767,1785,1780,1777,1855,1909,1989,2030,1999,1947,1893,1854,1799,1755,1717,1678,1659,1629,1582,1549,1517
1667,1597,1535,1527,1535,1426,1431,1387,1309,1278,1298,1347,1395,1397,1399,1452,1522,1552,1588,1649,1667,1632,1582,1520,1422,1387,1345,1292,1260,1227,1243,1300,1376,1438,1469,1508,1567,1614,1654,1727,1773,1814,1869,1928,1954,1973,1995,2005,1996,1938,1905,1863,1870,1860,1803,1772,1756,1678,1595,1547,1552,1517,1463,1407,1448,1454,1478,1534,1573,1604,1650,1704,1751,1764,1763,1718,1691,1645,1562,1480,1400,1350,1310,1300,1307,1207,1163,1118,1111,1087,1058,1019,1006,896,819,859,926,992,1049,1113,1187,1212,1230,1259,1294,1333,1396,1448,1501,1549,1607,1597,1547,1510,1480,1429,1369,1314,1255,1229,1140,1030,927,842,827,875,950,985,1079,1057,937,872,745,821,884,920,904,887,853,877,918,1008,1107,1212,1250,1247,1243,1222,1193,1167,1144,1106,1049,1027,1031,1058,1125,1164,1214,1241,1271,1302,1319,1354,1384,1430,1490,1513,1540,1557,1551,1581,1600,1650,1657,1667,1677,1687,1695,1742,1799,1906,1968,1991,1950,1876,1853,1815,1770,1736,1700,1695,1640,1596,1576,1574,1597
1671,1628,1561,1543,1456,1471,1469,1430,1347,1329,1351,1365,1415,1423,1413,1483,1533,1602,1628,1677,1718,1670,1615,1565,1507,1407,1340,1300,1250,1265,1266,1322,1400,1461,1516,1549,1587,1652,1703,1751,1790,1844,1904,1964,2000,2019,2020,2006,1967,1929,1902,1863,1829,1804,1792,1750,1724,1664,1565,1557,1488,1458,1422,1382,1384,1416,1464,1501,1526,1569,1638,1686,1743,1789,1787,1755,1695,1630,1530,1475,1397,1362,1349,1328,1263,1213,1162,1095,1078,1046,1014,988,956,874,840,875,937,1004,1057,1127,1177,1221,1242,1263,1298,1357,1422,1479,1543,1601,1641,1624,1558,1515,1470,1416,1354,1308,1259,1213,1193,1062,960,860,827,875,960,1049,1100,1072,960,890,802,770,838,882,846,820,837,827,848,957,1069,1176,1190,1194,1183,1180,1167,1138,1092,1028,1020,1054,1077,1048,1066,1121,1169,1223,1246,1249,1289,1334,1390,1428,1437,1450,1462,1462,1480,1495,1510,1527,1545,1550,1550,1617,1690,1770,1823,1921,1961,1940,1896,1832,1793,1772,1739,1715,1704,1702,1695,1697,1662,1654,1623
1694,1639,1608,1560,1500,1529,1517,1457,1382,1367,1395,1422,1428,1436,1488,1541,1577,1626,1681,1724,1747,1715,1650,1610,1545,1442,1372,1312,1297,1322,1345,1366,1431,1498,1554,1597,1627,1689,1764,1808,1834,1877,1938,2003,2038,2058,2030,1994,1954,1922,1892,1867,1837,1785,1747,1709,1691,1642,1597,1532,1457,1401,1381,1354,1377,1420,1446,1475,1515,1585,1633,1696,1733,1774,1792,1777,1717,1625,1545,1475,1412,1418,1392,1316,1265,1226,1128,1113,1077,1059,1033,1020,977,944,917,864,898,969,1071,1122,1199,1233,1242,1271,1315,1386,1426,1481,1549,1627,1682,1653,1604,1563,1471,1407,1333,1304,1277,1241,1180,1105,1010,907,837,867,966,1060,1134,1100,1020,935,870,782,765,843,803,848,872,853,855,933,1024,1141,1174,1146,1139,1141,1130,1083,1037,1009,1051,1099,1127,1110,1056,1081,1140,1174,1193,1223,1275,1312,1339,1375,1356,1364,1380,1365,1380,1395,1412,1427,1442,1490,1577,1646,1728,1808,1872,1900,1923,1879,1850,1803,1773,1754,1746,1760,1759,1774,1746,1746,1746,1634,1594
1713,1671,1618,1546,1559,1575,1535,1475,1391,1387,1440,1459,1454,1483,1528,1598,1644,1666,1695,1761,1803,1767,1725,1685,1630,1510,1392,1320,1340,1400,1405,1423,1488,1546,1608,1664,1694,1723,1792,1848,1876,1916,1970,2017,2054,2036,2036,2005,1969,1907,1872,1848,1821,1780,1731,1688,1627,1604,1565,1493,1453,1370,1334,1362,1410,1435,1462,1495,1536,1586,1610,1638,1695,1748,1783,1802,1750,1645,1572,1482,1476,1460,1405,1300,1262,1221,1182,1145,1096,1089,1069,1024,1012,969,937,860,888,948,1020,1128,1201,1224,1240,1277,1310,1390,1468,1539,1599,1646,1684,1617,1576,1533,1479,1422,1347,1313,1275,1226,1181,1135,1047,962,850,857,963,1044,1111,1150,1072,1010,947,900,880,853,852,851,859,875,893,957,1025,1108,1132,1110,1101,1096,1072,1027,993,1023,1073,1140,1147,1112,1073,1070,1089,1112,1142,1173,1210,1265,1293,1279,1291,1293,1300,1297,1295,1340,1378,1430,1471,1547,1615,1674,1741,1796,1846,1872,1886,1875,1832,1799,1784,1797,1807,1815,1825,1836,1835,1765,1690,1603,1602
1743,1691,1615,1583,1608,1613,1550,1509,1478,1444,1461,1509,1493,1492,1571,1639,1707,1716,1750,1809,1847,1827,1777,1730,1670,1550,1417,1350,1360,1417,1460,1478,1540,1603,1652,1698,1755,1775,1829,1883,1921,1960,2000,2037,2032,1999,2021,2005,1960,1939,1876,1812,1777,1752,1697,1624,1566,1544,1509,1472,1402,1353,1341,1347,1374,1405,1447,1482,1520,1520,1535,1584,1632,1710,1775,1817,1757,1667,1587,1542,1510,1483,1415,1332,1303,1275,1284,1181,1161,1128,1114,1076,1050,995,950,895,875,941,991,1119,1202,1231,1256,1270,1316,1401,1469,1574,1635,1686,1646,1579,1525,1486,1458,1440,1350,1312,1289,1233,1198,1154,1071,987,900,855,935,1017,1070,1131,1125,1057,1022,992,964,895,870,885,931,952,982,1005,1044,1086,1086,1067,1031,1026,992,977,1013,1055,1110,1153,1145,1111,1091,1061,1083,1100,1095,1125,1166,1207,1240,1226,1238,1229,1239,1275,1338,1377,1412,1459,1516,1586,1636,1689,1723,1761,1810,1834,1853,1855,1860,1830,1819,1844,1855,1887,1892,1881,1788,1762,1670,1653,1666
1757,1689,1639,1635,1676,1670,1606,1571,1561,1527,1511,1527,1512,1528,1597,1682,1749,1782,1811,1858,1905,1890,1850,1792,1725,1585,1435,1365,1385,1430,1486,1514,1568,1628,1698,1755,1794,1846,1880,1919,1952,2004,2028,2029,2003,1967,1960,1972,1940,1901,1867,1832,1762,1717,1665,1620,1538,1475,1440,1401,1336,1315,1300,1297,1318,1368,1411,1455,1488,1446,1460,1498,1565,1637,1711,1787,1765,1705,1612,1583,1530,1479,1407,1383,1336,1316,1270,1234,1212,1192,1194,1104,1088,1066,962,900,889,957,1006,1121,1203,1242,1269,1289,1330,1413,1476,1590,1640,1637,1599,1523,1474,1446,1410,1404,1360,1322,1293,1237,1189,1151,1063,976,893,882,899,1007,1067,1133,1155,1127,1085,1010,964,882,902,958,991,996,1009,1038,1050,1023,1024,983,980,972,990,1027,1070,1102,1150,1177,1178,1144,1117,1112,1124,1133,1125,1109,1128,1157,1178,1180,1178,1201,1248,1313,1368,1416,1455,1492,1537,1600,1640,1653,1681,1732,1768,1787,1815,1869,1903,1881,1880,1891,1896,1937,1934,1863,1805,1722,1723,1729,1737
1772,1734,1682,1703,1739,1748,1704,1648,1635,1582,1534,1561,1541,1554,1644,1737,1806,1862,1884,1899,1956,1957,1917,1862,1757,1612,1475,1412,1437,1450,1507,1548,1594,1668,1731,1791,1840,1886,1917,1968,1997,2017,2009,1993,1964,1916,1903,1933,1907,1878,1848,1802,1756,1703,1659,1598,1537,1442,1400,1348,1289,1273,1313,1341,1354,1377,1418,1444,1420,1381,1407,1476,1525,1585,1662,1723,1754,1705,1622,1575,1505,1431,1382,1365,1320,1309,1258,1217,1214,1235,1201,1153,1087,1050,945,882,915,954,1008,1129,1207,1243,1273,1305,1358,1429,1498,1602,1653,1614,1556,1480,1439,1400,1367,1345,1343,1334,1306,1254,1182,1100,1010,917,877,858,931,1006,1062,1108,1151,1164,1106,1000,932,904,952,988,937,928,947,984,973,963,959,959,992,1019,1019,1042,1069,1107,1148,1193,1214,1194,1169,1166,1183,1172,1174,1167,1137,1127,1135,1150,1174,1208,1255,1300,1337,1380,1415,1470,1530,1569,1588,1615,1637,1700,1735,1766,1818,1884,1945,1944,1947,1939,1923,1947,1903,1840,1769,1737,1781,1795,1773
1781,1743,1761,1783,1803,1800,1779,1700,1644,1578,1574,1590,1564,1590,1646,1763,1827,1906,1956,1972,2000,2024,1980,1912,1812,1650,1520,1450,1487,1477,1520,1574,1637,1713,1786,1838,1871,1921,1957,1993,1999,1976,1971,1950,1911,1866,1861,1872,1861,1845,1824,1793,1761,1694,1642,1580,1528,1425,1337,1302,1278,1233,1289,1341,1382,1388,1367,1384,1343,1345,1386,1446,1503,1557,1660,1722,1731,1695,1625,1562,1482,1392,1350,1299,1289,1251,1208,1169,1180,1199,1173,1128,1074,1006,902,860,912,972,1062,1131,1216,1241,1278,1321,1362,1418,1520,1585,1625,1578,1519,1457,1403,1363,1353,1305,1289,1291,1294,1255,1150,1062,960,900,883,921,971,1033,1080,1113,1157,1151,1094,995,937,926,948,905,917,963,971,953,948,983,998,998,1028,1071,1075,1080,1113,1140,1164,1201,1242,1261,1245,1233,1228,1206,1202,1199,1210,1187,1177,1169,1174,1226,1259,1324,1357,1408,1441,1448,1491,1530,1555,1613,1660,1693,1741,1793,1862,1939,1977,2015,2029,1984,1938,1911,1866,1786,1745,1774,1806,1796,1748
1847,1828,1845,1864,1857,1829,1761,1715,1640,1608,1630,1661,1621,1625,1690,1764,1839,1917,1974,2027,2059,2064,2032,1975,1885,1750,1590,1535,1557,1550,1575,1612,1668,1753,1809,1887,1922,1965,1981,1962,1930,1928,1899,1873,1854,1819,1795,1826,1818,1816,1798,1766,1728,1671,1625,1544,1490,1409,1330,1284,1260,1225,1271,1324,1352,1339,1320,1327,1303,1331,1385,1450,1525,1589,1646,1693,1692,1671,1637,1560,1472,1357,1285,1260,1245,1202,1162,1137,1118,1142,1114,1066,1005,941,867,886,927,996,1084,1152,1224,1254,1287,1339,1384,1437,1498,1587,1627,1573,1473,1423,1371,1319,1286,1272,1242,1234,1250,1233,1142,1050,950,897,913,984,1037,1086,1116,1142,1163,1127,1065,984,953,911,899,919,969,1007,1023,1012,964,999,1052,1079,1091,1113,1128,1142,1164,1189,1211,1240,1260,1294,1300,1292,1285,1232,1237,1240,1248,1243,1229,1196,1212,1250,1301,1347,1407,1442,1492,1530,1536,1539,1583,1631,1668,1703,1745,1791,1841,1916,1981,2026,2022,1989,1916,1871,1805,1770,1772,1809,1824,1794,1764
1928,1951,1936,1923,1902,1850,1800,1717,1650,1641,1686,1693,1669,1679,1729,1790,1849,1919,1994,2067,2114,2105,2050,2010,1932,1817,1700,1630,1600,1607,1667,1659,1703,1763,1850,1906,1955,1960,1935,1904,1878,1847,1835,1811,1796,1765,1759,1770,1765,1765,1769,1741,1694,1652,1577,1504,1457,1418,1370,1351,1217,1223,1249,1293,1313,1314,1282,1268,1279,1337,1403,1459,1523,1572,1644,1672,1639,1631,1620,1560,1475,1365,1282,1242,1207,1182,1127,1118,1086,1073,1061,995,938,874,907,956,987,1033,1092,1171,1219,1261,1290,1337,1383,1454,1517,1600,1631,1572,1487,1422,1350,1295,1249,1216,1198,1180,1191,1177,1140,1065,975,915,942,1034,1083,1113,1140,1159,1146,1102,1045,979,935,901,927,973,1005,1043,1082,1071,997,1006,1070,1129,1164,1181,1181,1205,1231,1240,1262,1276,1298,1313,1343,1331,1325,1282,1294,1282,1291,1292,1270,1214,1201,1268,1337,1382,1435,1476,1522,1564,1581,1559,1585,1637,1678,1716,1768,1816,1864,1907,1959,2012,2036,1961,1866,1826,1784,1772,1798,1845,1855,1801,1753
1939,1985,2023,2000,1950,1895,1837,1785,1701,1663,1702,1722,1688,1719,1775,1821,1878,1951,2012,2085,2146,2157,2082,2022,1962,1880,1762,1705,1642,1642,1710,1729,1757,1807,1875,1932,1937,1914,1885,1850,1818,1797,1767,1755,1747,1728,1702,1729,1723,1729,1713,1698,1667,1612,1549,1493,1453,1417,1371,1313,1267,1221,1207,1260,1301,1286,1241,1243,1294,1355,1408,1466,1515,1585,1619,1634,1582,1572,1560,1515,1469,1352,1310,1281,1185,1147,1102,1059,1025,992,972,933,875,925,991,1019,1053,1113,1156,1203,1253,1276,1301,1339,1396,1474,1539,1611,1642,1572,1495,1422,1345,1287,1230,1186,1150,1123,1123,1110,1098,1071,999,951,959,1008,1038,1068,1090,1131,1157,1112,1062,994,994,968,982,1015,1058,1078,1118,1133,1035,1035,1088,1143,1203,1243,1247,1270,1291,1306,1318,1316,1331,1356,1383,1385,1356,1341,1340,1342,1349,1328,1281,1239,1211,1264,1352,1423,1475,1511,1550,1576,1532,1510,1542,1613,1659,1723,1773,1833,1878,1933,1956,1998,2013,1939,1856,1817,1807,1799,1808,1841,1853,1787,1782
1910,1961,2034,2045,2030,1962,1905,1845,1770,1712,1754,1755,1731,1763,1811,1878,1940,1998,2035,2088,2166,2227,2162,2070,2015,1900,1807,1722,1675,1692,1735,1776,1827,1863,1912,1930,1890,1858,1839,1790,1783,1749,1724,1712,1697,1688,1671,1698,1679,1689,1656,1650,1635,1619,1572,1511,1452,1388,1354,1312,1283,1240,1200,1233,1264,1239,1212,1249,1321,1375,1427,1474,1519,1579,1597,1569,1514,1503,1457,1433,1415,1363,1299,1251,1185,1133,1065,1003,956,933,902,879,895,952,1002,1036,1089,1154,1200,1228,1263,1300,1323,1362,1404,1459,1574,1616,1617,1556,1483,1427,1365,1310,1242,1200,1138,1104,1078,1046,1033,1016,980,939,918,965,1003,1034,1083,1156,1191,1153,1095,1047,1051,1073,1064,1073,1106,1134,1151,1131,1050,1053,1112,1172,1233,1278,1303,1331,1353,1356,1366,1368,1388,1414,1419,1425,1413,1416,1390,1394,1379,1307,1255,1237,1236,1304,1378,1444,1494,1517,1534,1514,1475,1475,1532,1601,1690,1742,1770,1811,1853,1902,1938,1961,1974,1944,1873,1838,1828,1820,1820,1853,1858,1847,1820
1876,1928,2000,2055,2067,2042,1962,1900,1810,1773,1800,1800,1792,1807,1873,1933,1959,2017,2074,2122,2191,2242,2225,2112,2022,1927,1817,1740,1712,1750,1775,1816,1857,1917,1925,1883,1839,1807,1778,1766,1741,1705,1681,1672,1685,1662,1648,1668,1651,1626,1596,1599,1600,1603,1556,1509,1402,1392,1357,1341,1291,1262,1198,1185,1211,1181,1208,1259,1336,1383,1436,1477,1533,1558,1545,1513,1445,1401,1370,1363,1353,1335,1293,1261,1211,1100,1022,961,931,896,922,946,964,972,1005,1063,1099,1168,1206,1226,1248,1290,1323,1352,1403,1475,1548,1596,1574,1509,1447,1385,1326,1293,1244,1221,1120,1106,1071,1041,1009,984,957,920,916,958,998,1053,1139,1188,1225,1204,1173,1131,1138,1154,1156,1144,1151,1176,1192,1135,1050,1101,1159,1213,1263,1295,1332,1355,1387,1410,1416,1423,1436,1462,1478,1500,1502,1489,1493,1489,1417,1280,1250,1286,1309,1355,1416,1456,1474,1483,1492,1453,1439,1488,1545,1637,1700,1711,1761,1786,1822,1856,1897,1932,1950,1915,1890,1865,1864,1836,1838,1868,1879,1847,1848
1835,1875,1947,2030,2067,2080,1985,1915,1800,1803,1839,1845,1830,1845,1911,1967,2001,2032,2085,2143,2226,2288,2275,2137,2032,1967,1887,1825,1772,1800,1802,1847,1898,1906,1860,1821,1786,1747,1735,1737,1718,1702,1664,1642,1655,1665,1629,1616,1601,1574,1563,1546,1561,1563,1549,1524,1494,1399,1378,1360,1329,1278,1204,1170,1161,1200,1237,1294,1342,1388,1446,1486,1525,1504,1491,1430,1339,1289,1285,1289,1303,1295,1251,1237,1201,1115,1037,939,920,911,950,1001,1020,998,996,1066,1122,1192,1219,1248,1277,1301,1341,1389,1427,1484,1551,1595,1555,1472,1407,1353,1302,1261,1218,1198,1161,1148,1127,1118,1050,985,955,923,967,1012,1063,1075,1142,1197,1247,1258,1228,1215,1216,1231,1236,1216,1229,1247,1221,1165,1082,1130,1170,1208,1239,1272,1296,1327,1374,1438,1466,1485,1522,1538,1544,1552,1565,1569,1561,1505,1430,1265,1250,1289,1330,1401,1441,1457,1430,1428,1411,1402,1424,1468,1548,1639,1685,1713,1745,1772,1801,1832,1873,1910,1939,1926,1905,1907,1892,1874,1864,1897,1896,1894,1891
1804,1859,1928,2001,2045,2095,2000,1910,1800,1838,1878,1897,1880,1897,1936,1978,2029,2082,2124,2183,2259,2307,2300,2187,2060,2010,1945,1895,1837,1845,1850,1879,1918,1882,1827,1784,1736,1707,1702,1720,1695,1686,1654,1617,1625,1623,1612,1598,1557,1523,1518,1515,1530,1531,1510,1512,1480,1440,1411,1369,1357,1281,1245,1211,1165,1174,1224,1270,1333,1371,1417,1466,1484,1459,1402,1305,1262,1225,1219,1247,1255,1223,1200,1201,1160,1095,1030,972,912,931,977,1041,1064,1036,1008,1063,1127,1188,1229,1256,1312,1350,1371,1408,1466,1527,1576,1589,1557,1490,1432,1350,1323,1276,1242,1222,1205,1193,1173,1153,1050,975,930,980,1020,1062,1111,1131,1150,1194,1246,1288,1319,1312,1297,1301,1292,1305,1309,1316,1305,1240,1147,1120,1157,1170,1207,1242,1293,1337,1393,1456,1513,1550,1602,1627,1618,1637,1644,1643,1575,1510,1425,1305,1250,1285,1357,1406,1433,1405,1380,1343,1366,1390,1424,1487,1549,1623,1688,1733,1747,1776,1804,1850,1886,1916,1939,1945,1943,1933,1917,1915,1912,1940,1931,1939,1932
1774,1838,1920,1977,2032,2085,2030,1940,1842,1868,1921,1957,1940,1958,1985,2007,2059,2114,2174,2230,2305,2360,2345,2260,2167,2070,2007,1937,1900,1887,1889,1900,1924,1865,1823,1761,1715,1682,1666,1673,1672,1642,1623,1594,1576,1579,1563,1550,1519,1481,1487,1480,1495,1474,1464,1474,1495,1481,1459,1409,1369,1309,1275,1215,1133,1147,1200,1242,1316,1364,1399,1446,1425,1365,1291,1230,1230,1186,1160,1187,1189,1172,1153,1125,1116,1073,1011,939,910,946,1000,1052,1084,1060,1030,1069,1127,1173,1199,1250,1294,1339,1393,1447,1493,1548,1593,1618,1565,1517,1417,1380,1352,1305,1292,1259,1260,1236,1244,1130,1057,962,957,1010,1087,1133,1168,1190,1202,1202,1240,1294,1362,1381,1379,1385,1408,1400,1396,1401,1395,1325,1262,1177,1189,1186,1203,1265,1314,1357,1428,1484,1543,1605,1644,1684,1707,1712,1721,1675,1546,1505,1460,1360,1275,1278,1336,1356,1356,1343,1334,1350,1378,1421,1470,1528,1602,1639,1678,1723,1767,1785,1807,1843,1875,1904,1928,1947,1979,1970,1971,1951,1952,1986,1999,1978,1977
1776,1811,1884,1945,2024,2070,2062,1970,1875,1880,1951,1996,2002,2013,2041,2073,2107,2141,2199,2255,2345,2402,2387,2345,2245,2170,2100,2000,1950,1932,1935,1943,1923,1865,1801,1765,1693,1654,1628,1624,1616,1593,1594,1576,1529,1521,1529,1514,1488,1456,1424,1439,1452,1434,1422,1448,1452,1419,1390,1372,1354,1333,1305,1212,1150,1151,1186,1240,1292,1344,1376,1403,1369,1292,1217,1185,1160,1132,1108,1124,1129,1117,1079,1060,1056,1012,947,906,930,971,1027,1075,1093,1066,1044,1104,1172,1206,1225,1266,1292,1320,1391,1440,1488,1541,1610,1627,1575,1495,1447,1415,1412,1379,1367,1345,1354,1324,1210,1100,1030,950,994,1020,1119,1183,1220,1264,1270,1278,1293,1328,1353,1415,1448,1454,1469,1464,1478,1463,1427,1400,1347,1310,1254,1215,1218,1255,1307,1371,1431,1484,1552,1617,1677,1733,1743,1712,1670,1627,1565,1506,1470,1417,1347,1303,1280,1294,1283,1300,1308,1343,1378,1422,1466,1521,1582,1619,1678,1727,1767,1793,1812,1830,1868,1902,1933,1962,1995,2021,2010,1990,1991,2020,2048,2041,2030
1820,1855,1892,1958,2017,2090,2105,2000,1910,1898,1954,2006,2051,2086,2132,2154,2169,2193,2254,2324,2367,2395,2388,2360,2307,2237,2165,2107,2030,1982,1976,1953,1908,1857,1827,1757,1685,1632,1600,1600,1581,1546,1540,1529,1486,1476,1481,1462,1447,1403,1365,1399,1397,1393,1398,1396,1350,1349,1311,1297,1298,1292,1269,1172,1115,1119,1159,1215,1274,1304,1339,1331,1307,1238,1166,1122,1099,1087,1058,1061,1056,1044,1017,1007,992,947,926,940,962,1015,1074,1115,1108,1102,1126,1164,1215,1263,1274,1266,1302,1350,1402,1455,1497,1555,1620,1655,1597,1550,1513,1510,1508,1451,1450,1420,1350,1270,1207,1097,1015,950,996,1059,1141,1198,1265,1321,1332,1347,1375,1386,1422,1434,1475,1510,1529,1537,1544,1502,1460,1429,1390,1341,1270,1215,1227,1268,1324,1384,1441,1496,1555,1638,1710,1752,1696,1658,1612,1543,1506,1441,1423,1389,1352,1329,1312,1290,1293,1289,1327,1375,1408,1442,1483,1509,1559,1613,1695,1724,1764,1806,1838,1846,1859,1886,1909,1944,1982,2029,2048,2033,2031,2055,2086,2121,2105
1847,1898,1939,1974,2025,2101,2132,2060,1947,1927,1992,2040,2111,2128,2166,2212,2224,2259,2294,2349,2377,2373,2364,2341,2308,2258,2205,2157,2100,2050,2008,2001,1925,1850,1792,1737,1675,1622,1550,1567,1535,1499,1468,1438,1435,1431,1412,1394,1373,1320,1329,1333,1318,1357,1359,1326,1289,1276,1257,1224,1250,1243,1232,1151,1129,1097,1139,1178,1234,1260,1250,1273,1260,1192,1122,1070,1057,1045,1013,998,997,977,971,945,932,948,975,1001,1022,1062,1115,1137,1130,1157,1187,1235,1259,1285,1314,1303,1288,1376,1433,1495,1542,1601,1649,1646,1629,1619,1626,1591,1581,1550,1500,1415,1345,1280,1197,1095,1007,995,1044,1097,1143,1235,1293,1341,1383,1411,1430,1457,1467,1501,1525,1553,1579,1600,1551,1515,1462,1426,1382,1320,1239,1235,1257,1298,1356,1392,1450,1522,1579,1655,1718,1734,1681,1631,1584,1537,1505,1475,1431,1426,1405,1396,1372,1353,1335,1318,1363,1400,1433,1472,1517,1557,1593,1619,1670,1716,1753,1795,1830,1859,1871,1896,1910,1931,1961,2018,2069,2086,2076,2093,2138,2174,2196
1845,1908,1953,2002,2056,2124,2146,2120,2005,1978,1998,2066,2137,2190,2220,2239,2282,2327,2345,2372,2370,2348,2342,2325,2296,2257,2231,2209,2133,2083,2058,2053,2000,1892,1800,1730,1665,1600,1542,1515,1509,1454,1432,1427,1426,1407,1385,1350,1317,1275,1267,1233,1271,1304,1302,1256,1255,1232,1183,1188,1158,1171,1187,1178,1152,1091,1108,1162,1186,1157,1175,1220,1201,1138,1084,1040,1015,994,980,966,954,948,960,965,974,973,1001,1044,1070,1094,1131,1142,1145,1197,1251,1282,1301,1325,1357,1376,1366,1383,1447,1509,1584,1658,1707,1749,1736,1739,1714,1692,1657,1607,1545,1460,1385,1307,1220,1105,1012,995,1072,1115,1193,1256,1310,1367,1409,1470,1499,1515,1538,1555,1576,1592,1620,1642,1573,1501,1468,1400,1359,1311,1253,1276,1275,1317,1372,1426,1483,1546,1611,1656,1679,1665,1689,1683,1626,1605,1561,1536,1500,1483,1467,1459,1442,1410,1357,1328,1381,1410,1433,1453,1489,1527,1568,1612,1658,1695,1732,1782,1820,1863,1896,1913,1951,1972,1984,2023,2069,2114,2143,2140,2177,2204,2196
1851,1907,1957,2020,2083,2124,2159,2175,2090,2056,2054,2123,2172,2255,2295,2309,2325,2356,2374,2381,2364,2337,2312,2298,2260,2230,2202,2180,2164,2121,2099,2092,2089,1975,1837,1712,1630,1570,1525,1497,1492,1476,1470,1557,1545,1517,1480,1422,1357,1262,1252,1227,1241,1239,1209,1160,1171,1166,1159,1136,1105,1110,1118,1128,1137,1108,1104,1140,1120,1103,1151,1138,1117,1096,1051,1029,991,1000,973,996,1015,1024,1012,1024,1035,1040,1049,1069,1104,1130,1152,1160,1159,1196,1268,1309,1335,1351,1379,1414,1438,1461,1498,1542,1606,1661,1738,1786,1818,1813,1818,1783,1726,1662,1595,1522,1430,1350,1260,1135,1025,995,1069,1138,1219,1282,1340,1402,1470,1524,1565,1584,1607,1622,1631,1663,1673,1663,1617,1522,1479,1413,1363,1321,1297,1319,1311,1310,1344,1394,1470,1555,1590,1609,1625,1666,1719,1728,1709,1675,1637,1594,1560,1533,1532,1514,1480,1442,1357,1333,1358,1384,1412,1438,1484,1513,1541,1587,1626,1672,1718,1762,1830,1888,1936,1943,1978,2007,2021,2021,2059,2116,2190,2229,2221,2221,2136
1822,1883,1948,1999,2057,2097,2158,2213,2210,2148,2114,2157,2219,2289,2338,2360,2362,2360,2348,2365,2364,2333,2294,2275,2231,2199,2165,2155,2126,2124,2127,2108,2098,2038,1925,1775,1680,1600,1572,1646,1589,1651,1642,1634,1608,1575,1517,1450,1346,1300,1287,1259,1202,1169,1174,1174,1152,1147,1140,1127,1142,1142,1099,1105,1089,1070,1071,1079,1051,1068,1054,1062,1057,1032,1031,998,1012,1017,996,1029,1077,1091,1088,1080,1082,1074,1076,1109,1136,1160,1182,1208,1195,1216,1271,1327,1363,1396,1437,1474,1497,1531,1539,1578,1642,1694,1749,1799,1838,1819,1773,1769,1721,1676,1595,1546,1465,1387,1307,1187,1072,997,1032,1112,1211,1285,1361,1452,1510,1556,1607,1652,1674,1683,1693,1717,1713,1676,1618,1560,1457,1427,1383,1343,1310,1343,1352,1358,1365,1382,1448,1509,1543,1573,1625,1678,1727,1784,1768,1740,1720,1650,1625,1600,1585,1558,1487,1435,1350,1331,1384,1431,1457,1473,1497,1524,1581,1597,1665,1691,1731,1780,1824,1874,1937,1967,1975,2003,2050,2078,2090,2120,2171,2232,2250,2207,2132
1808,1861,1943,1989,2038,2090,2164,2203,2214,2204,2171,2185,2241,2298,2353,2371,2370,2343,2329,2316,2318,2306,2268,2235,2215,2185,2134,2124,2099,2103,2099,2096,2098,2024,1966,1862,1740,1657,1640,1698,1741,1770,1707,1658,1614,1563,1500,1407,1329,1282,1250,1219,1218,1246,1277,1293,1301,1250,1240,1217,1217,1209,1190,1138,1092,1085,1096,1054,1082,1096,1039,1022,1026,1018,1002,1018,1052,1069,1028,1024,1054,1143,1166,1153,1158,1140,1127,1140,1161,1202,1256,1258,1229,1267,1287,1314,1369,1418,1464,1517,1564,1604,1618,1639,1690,1744,1794,1825,1832,1777,1738,1713,1682,1648,1574,1537,1433,1378,1290,1232,1137,1057,1037,1059,1165,1250,1328,1434,1533,1576,1633,1691,1725,1746,1770,1763,1716,1664,1607,1558,1481,1442,1385,1335,1336,1337,1380,1407,1434,1420,1468,1529,1567,1577,1633,1679,1727,1797,1830,1818,1787,1737,1677,1635,1605,1533,1473,1425,1350,1342,1386,1445,1502,1525,1537,1554,1610,1647,1672,1726,1758,1799,1850,1901,1937,1990,2024,2027,2049,2098,2154,2172,2186,2226,2250,2195,2122
1853,1894,1959,1997,2049,2098,2146,2173,2191,2232,2227,2222,2281,2334,2374,2370,2335,2315,2312,2276,2263,2265,2254,2195,2184,2156,2117,2099,2072,2075,2066,2080,2085,2036,1963,1904,1800,1732,1718,1741,1774,1756,1691,1634,1594,1526,1460,1380,1320,1312,1308,1297,1310,1364,1371,1380,1318,1329,1313,1279,1241,1193,1161,1122,1109,1136,1158,1153,1148,1148,1132,1099,1087,1102,1071,1103,1136,1150,1057,1013,1058,1145,1197,1231,1232,1201,1190,1192,1216,1270,1321,1315,1285,1292,1352,1371,1396,1441,1515,1570,1625,1680,1701,1728,1758,1800,1835,1849,1800,1738,1687,1660,1617,1569,1551,1496,1427,1369,1256,1205,1158,1123,1071,1072,1124,1216,1300,1386,1477,1547,1620,1678,1746,1797,1812,1781,1725,1657,1605,1546,1472,1442,1376,1380,1386,1364,1399,1440,1479,1470,1478,1530,1570,1609,1647,1680,1753,1814,1875,1867,1835,1775,1707,1642,1600,1530,1477,1417,1331,1352,1408,1470,1551,1582,1600,1613,1652,1680,1693,1721,1754,1796,1851,1909,1952,2021,2075,2077,2092,2118,2168,2221,2246,2257,2277,2200,2132
1895,1899,1958,2005,2041,2084,2125,2152,2195,2233,2263,2284,2326,2365,2394,2356,2309,2283,2275,2258,2217,2219,2233,2196,2170,2135,2099,2067,2036,2030,2047,2071,2084,2027,1951,1875,1844,1776,1752,1758,1769,1724,1671,1623,1582,1499,1480,1457,1395,1357,1360,1387,1403,1426,1421,1406,1359,1359,1333,1258,1182,1118,1109,1106,1134,1176,1228,1260,1253,1228,1236,1202,1184,1162,1148,1161,1188,1183,1072,1037,1064,1143,1207,1263,1293,1299,1293,1293,1324,1344,1375,1372,1310,1316,1374,1430,1486,1502,1555,1602,1687,1742,1770,1777,1806,1849,1870,1827,1756,1716,1648,1579,1546,1500,1474,1451,1398,1248,1210,1146,1088,1078,1068,1063,1114,1192,1279,1374,1448,1516,1612,1703,1766,1810,1825,1800,1737,1650,1605,1553,1469,1440,1407,1419,1419,1382,1406,1454,1493,1515,1523,1557,1605,1640,1670,1716,1768,1834,1880,1922,1857,1785,1712,1642,1595,1522,1470,1389,1339,1367,1438,1504,1575,1620,1656,1677,1710,1739,1738,1760,1787,1814,1868,1924,1976,2029,2068,2104,2127,2176,2203,2228,2281,2302,2289,2207,2145
1925,1959,1963,1992,2026,2078,2140,2185,2220,2277,2299,2310,2354,2385,2389,2342,2307,2250,2234,2220,2184,2179,2175,2156,2125,2120,2106,2047,1999,1995,2022,2040,2038,1982,1942,1897,1839,1788,1762,1757,1766,1727,1674,1635,1578,1580,1543,1522,1447,1419,1441,1460,1459,1436,1375,1338,1323,1310,1280,1208,1141,1128,1133,1156,1172,1210,1251,1298,1302,1273,1284,1293,1287,1298,1300,1267,1222,1145,1065,1047,1100,1154,1222,1281,1307,1332,1336,1348,1396,1419,1446,1445,1375,1333,1384,1468,1531,1572,1635,1674,1728,1792,1826,1839,1857,1895,1859,1781,1746,1668,1603,1547,1493,1427,1417,1363,1323,1262,1207,1123,1095,1114,1133,1145,1167,1195,1262,1370,1452,1524,1607,1691,1748,1785,1816,1800,1750,1675,1600,1555,1485,1447,1459,1453,1432,1399,1428,1478,1507,1543,1552,1606,1656,1696,1714,1756,1812,1868,1932,1902,1845,1775,1705,1645,1582,1517,1460,1383,1349,1405,1487,1545,1579,1654,1720,1746,1769,1774,1778,1804,1845,1857,1887,1943,1989,2052,2112,2158,2166,2190,2235,2284,2332,2326,2299,2215,2145
1951,1991,2030,2048,2070,2091,2145,2189,2253,2280,2276,2293,2344,2381,2415,2376,2307,2247,2196,2188,2164,2128,2116,2100,2084,2075,2050,2020,1969,1968,1975,1984,1978,1927,1901,1883,1818,1774,1760,1780,1788,1740,1671,1633,1640,1636,1593,1562,1500,1486,1506,1516,1513,1437,1330,1270,1250,1253,1224,1180,1137,1154,1157,1177,1208,1249,1288,1333,1353,1341,1352,1361,1363,1345,1347,1330,1222,1145,1065,1065,1114,1180,1257,1287,1322,1354,1380,1411,1447,1499,1525,1524,1447,1404,1445,1516,1588,1659,1709,1759,1788,1823,1872,1889,1898,1912,1854,1796,1701,1667,1570,1507,1410,1332,1300,1300,1296,1243,1195,1135,1126,1186,1230,1241,1261,1288,1316,1352,1439,1533,1603,1660,1694,1738,1784,1814,1765,1707,1625,1557,1515,1514,1533,1492,1445,1441,1464,1510,1546,1577,1614,1639,1693,1746,1778,1819,1851,1907,1961,1910,1845,1775,1705,1645,1575,1507,1440,1373,1381,1438,1494,1553,1630,1676,1739,1785,1816,1813,1819,1860,1903,1905,1918,1978,2025,2088,2151,2192,2220,2203,2214,2280,2311,2317,2257,2200,2133
1953,1993,2059,2097,2110,2108,2154,2191,2227,2241,2247,2304,2351,2389,2408,2363,2288,2225,2179,2156,2134,2089,2067,2035,2035,2008,1999,1965,1954,1927,1915,1918,1911,1876,1842,1813,1784,1778,1799,1811,1793,1721,1714,1705,1696,1657,1638,1606,1570,1555,1570,1562,1510,1440,1350,1245,1200,1207,1178,1166,1142,1170,1213,1232,1251,1280,1304,1349,1392,1390,1410,1430,1439,1447,1430,1405,1250,1157,1067,1084,1130,1200,1267,1301,1340,1385,1423,1454,1486,1533,1595,1626,1588,1534,1539,1611,1667,1714,1765,1821,1834,1867,1905,1934,1945,1927,1857,1765,1690,1600,1515,1457,1360,1292,1250,1232,1210,1185,1157,1147,1159,1232,1276,1329,1346,1348,1379,1421,1441,1526,1596,1657,1701,1750,1779,1811,1779,1730,1650,1580,1571,1576,1578,1491,1475,1501,1513,1522,1574,1635,1664,1715,1735,1791,1845,1878,1923,1966,1988,1910,1850,1767,1697,1630,1562,1495,1420,1369,1407,1468,1523,1596,1647,1712,1765,1817,1844,1855,1863,1904,1941,1966,1975,1998,2036,2098,2159,2209,2179,2138,2172,2215,2246,2273,2217,2133,2105
